13.9165 -42.2377 467.227 0.589154 0.508193 -0.628202
14.1268 -42.2598 467.426 0.591073 0.525903 -0.611603
14.3357 -42.2774 467.618 0.631093 0.526545 -0.569625
14.5468 -42.3004 467.871 0.738055 0.475059 -0.47916
14.7619 -42.3345 468.246 0.747985 0.464321 -0.474262
14.9731 -42.3567 468.49 0.748328 0.460298 -0.47763
15.1885 -42.39 468.856 0.76356 0.422408 -0.488413
15.4017 -42.4163 469.135 0.688748 0.468096 -0.553635
15.611 -42.4313 469.31 0.734006 0.414284 -0.538148
15.8256 -42.4601 469.627 0.859136 0.298266 -0.415839
16.05 -42.5143 470.224 0.863506 0.361491 -0.351683
16.269 -42.5529 470.65 0.816551 0.446097 -0.36639
16.487 -42.5879 471.035 0.799376 0.397003 -0.450984
16.703 -42.6172 471.356 0.851449 0.352957 -0.387887
16.9321 -42.6784 472.032 0.85233 0.409806 -0.32495
-4.1584 -42.184 468.887 -0.745615 0.301864 -0.594084
-3.95287 -42.1639 468.664 -0.733384 0.336105 -0.590916
-3.74726 -42.1409 468.409 -0.713459 0.335057 -0.615397
-3.54249 -42.125 468.233 -0.667421 0.377185 -0.642091
-3.33753 -42.1049 468.01 -0.696169 0.353412 -0.624858
-3.1327 -42.0839 467.777 -0.736944 0.319609 -0.59562
-2.9279 -42.0604 467.516 -0.69042 0.376616 -0.617641
-2.7237 -42.0426 467.32 -0.647513 0.363738 -0.669643
-2.51977 -42.0266 467.142 -0.640707 0.354966 -0.680804
-2.31608 -42.0119 466.979 -0.596867 0.445024 -0.66761
-2.11231 -41.9931 466.813 -0.57958 0.445646 -0.682265
-1.90901 -41.9803 466.643 -0.596275 0.409593 -0.690427
-1.70582 -41.9675 466.487 -0.547894 0.47266 -0.690221
-1.5027 -41.953 466.326 -0.591047 0.431137 -0.681751
-1.29965 -41.9364 466.142 -0.588158 0.396439 -0.704916
-1.09691 -41.9256 466.022 -0.485386 0.439616 -0.755737
-0.894271 -41.9142 465.896 -0.483294 0.430893 -0.762075
-0.691742 -41.9031 465.773 -0.511309 0.42151 -0.748928
-0.489292 -41.8895 465.637 -0.493602 0.452798 -0.742517
-0.286996 -41.8794 465.51 -0.442517 0.475383 -0.760388
-0.0848066 -41.8731 465.417 -0.457973 0.470849 -0.754031
0.1173 -41.8589 465.283 -0.450516 0.500977 -0.738957
0.3193 -41.8487 465.173 -0.421078 0.485085 -0.766411
0.521222 -41.8401 465.073 -0.397996 0.477018 -0.783615
0.723037 -41.8301 464.967 -0.372866 0.48925 -0.78842
0.924849 -41.8244 464.899 -0.417699 0.482082 -0.770146
1.12648 -41.8141 464.785 -0.444371 0.497525 -0.744986
1.32805 -41.8048 464.681 -0.282724 0.552858 -0.783847
1.52977 -41.8023 464.654 -0.210034 0.569822 -0.794474
1.73127 -41.795 464.572 -0.318577 0.50111 -0.80461
1.93265 -41.7865 464.477 -0.368268 0.485072 -0.793148
2.13403 -41.7797 464.402 -0.306786 0.523787 -0.794688
2.33547 -41.7751 464.351 -0.224919 0.540883 -0.810467
2.53682 -41.7698 464.291 -0.20814 0.549801 -0.808948
2.73813 -41.7646 464.234 -0.238853 0.519237 -0.820575
2.93933 -41.7587 464.168 -0.256886 0.502755 -0.825377
3.14063 -41.7548 464.124 -0.194128 0.533848 -0.822995
3.34202 -41.7525 464.099 -0.157163 0.51603 -0.842029
3.54347 -41.7511 464.083 -0.162487 0.500246 -0.850501
3.7444 -41.7442 464.006 -0.205604 0.504549 -0.838545
3.94572 -41.7421 463.982 -0.254906 0.514536 -0.818703
4.14637 -41.7334 463.885 -0.156057 0.551656 -0.819343
4.34775 -41.7326 463.876 -0.066138 0.537423 -0.840715
4.54922 -41.7325 463.875 -0.0732229 0.548408 -0.832999
4.75062 -41.732 463.869 -0.0441133 0.566429 -0.822929
4.95195 -41.731 463.856 -0.025497 0.564711 -0.824895
5.15342 -41.731 463.856 -0.00609997 0.572742 -0.819713
5.3549 -41.7309 463.856 -0.0438099 0.575265 -0.816793
5.55591 -41.7278 463.819 -0.0622654 0.551675 -0.831732
5.75711 -41.7275 463.815 -0.00973567 0.53705 -0.843494
5.95875 -41.7275 463.815 -0.000765116 0.53851 -0.842619
6.16 -41.7275 463.815 0.0191607 0.539369 -0.841852
6.36188 -41.7291 463.832 0.0608323 0.567168 -0.821353
6.5637 -41.7315 463.858 0.0939876 0.588009 -0.803376
6.76539 -41.733 463.874 0.0805835 0.580901 -0.809975
6.9671 -41.7343 463.887 0.017787 0.57002 -0.821438
7.16855 -41.7344 463.889 0.0912243 0.566793 -0.818794
7.37045 -41.7367 463.913 0.201906 0.519236 -0.830439
7.57338 -41.7438 463.99 0.153097 0.528807 -0.83482
7.77475 -41.7448 464.002 0.123792 0.570077 -0.812212
7.97722 -41.7488 464.046 0.184512 0.551936 -0.813218
8.1795 -41.7526 464.087 0.151331 0.564332 -0.811559
8.38163 -41.7555 464.117 0.172529 0.573785 -0.800628
8.58401 -41.7594 464.16 0.280637 0.573209 -0.769853
8.78713 -41.7666 464.24 0.19036 0.593978 -0.781635
8.98905 -41.768 464.255 0.251153 0.584439 -0.771591
9.19221 -41.775 464.38 0.400921 0.568493 -0.718386
9.39659 -41.787 464.476 0.431306 0.552734 -0.713064
9.60154 -41.8011 464.605 0.343905 0.579839 -0.738591
9.80445 -41.8058 464.67 0.183769 0.610894 -0.770089
10.0073 -41.8104 464.719 0.227381 0.610389 -0.758764
10.2103 -41.8151 464.771 0.372311 0.576336 -0.727476
10.415 -41.8265 464.897 0.387557 0.549083 -0.740478
10.6182 -41.8313 464.949 0.230833 0.527933 -0.817314
10.8213 -41.8358 464.998 0.235119 0.52615 -0.817242
11.0247 -41.8415 465.059 0.411967 0.535959 -0.736906
11.2307 -41.8565 465.225 0.53482 0.511277 -0.672728
11.4369 -41.8717 465.392 0.59943 0.521605 -0.607134
11.6444 -41.8908 465.589 0.568814 0.528607 -0.6301
11.849 -41.8992 465.725 0.463518 0.515292 -0.72085
12.0552 -41.9129 465.84 0.454417 0.48895 -0.744603
12.2602 -41.9222 465.949 0.464832 0.482471 -0.742397
12.4664 -41.9351 466.073 0.42946 0.498973 -0.752721
12.6709 -41.9419 466.165 0.438503 0.492298 -0.751903
12.8775 -41.9552 466.312 0.540352 0.487092 -0.686121
13.0845 -41.9696 466.471 0.629447 0.44954 -0.633806
13.2937 -41.9905 466.701 0.666367 0.486984 -0.564625
13.5043 -42.015 467.013 0.656098 0.561154 -0.504621
13.7146 -42.038 467.185 0.646371 0.518555 -0.559736
13.9235 -42.0558 467.422 0.612108 0.488345 -0.621967
14.1314 -42.0707 467.585 0.619259 0.50034 -0.605127
14.3392 -42.0845 467.83 0.661959 0.493739 -0.563944
14.5523 -42.1131 468.054 0.735863 0.477151 -0.48045
14.7663 -42.1439 468.394 0.758446 0.430732 -0.48911
14.9783 -42.1679 468.659 0.758362 0.390029 -0.522268
15.1911 -42.1934 468.942 0.776592 0.368351 -0.511099
15.4044 -42.2198 469.233 0.700334 0.378986 -0.604899
15.6143 -42.2363 469.415 0.736148 0.386767 -0.555425
15.8313 -42.2714 469.802 0.855345 0.327534 -0.401382
16.0571 -42.3287 470.438 0.86488 0.355073 -0.354832
16.2774 -42.3703 470.898 0.795748 0.436447 -0.41988
16.4903 -42.3917 471.134 0.806671 0.387792 -0.445982
16.7132 -42.4383 471.65 0.87426 0.338494 -0.347983
16.9378 -42.4878 472.198 0.87259 0.34297 -0.347791
-4.15957 -41.992 469.022 -0.716487 0.36861 -0.592261
-3.9536 -41.9679 468.755 -0.734384 0.354828 -0.5786
-3.74805 -41.946 468.511 -0.690206 0.385858 -0.612151
-3.54305 -41.928 468.31 -0.675967 0.368141 -0.638389
-3.33804 -41.9078 468.085 -0.710337 0.32355 -0.625089
-3.13334 -41.889 467.876 -0.720343 0.315407 -0.617757
-2.92881 -41.8701 467.665 -0.710667 0.364559 -0.601705
-2.72425 -41.8478 467.417 -0.643077 0.411528 -0.64583
-2.52045 -41.8347 467.271 -0.56633 0.439245 -0.697377
-2.31682 -41.8222 467.131 -0.60941 0.416186 -0.674839
-2.11291 -41.8018 466.905 -0.617773 0.381944 -0.687368
-1.90975 -41.7935 466.77 -0.554949 0.426536 -0.714213
-1.70638 -41.7782 466.628 -0.586464 0.402209 -0.703056
-1.50307 -41.7604 466.443 -0.626692 0.390118 -0.674585
-1.29994 -41.7429 466.256 -0.568617 0.445237 -0.691693
-1.09714 -41.7311 466.116 -0.489688 0.457077 -0.742486
-0.894464 -41.7202 465.995 -0.483275 0.437322 -0.758416
-0.691898 -41.7094 465.874 -0.485545 0.430736 -0.760732
-0.489447 -41.6993 465.762 -0.48959 0.436749 -0.754687
-0.287085 -41.6881 465.637 -0.444415 0.468732 -0.763404
-0.0848391 -41.6803 465.533 -0.429652 0.463876 -0.774738
0.117319 -41.6684 465.44 -0.483967 0.455407 -0.747248
0.319358 -41.6559 465.283 -0.426868 0.516038 -0.742623
0.521357 -41.6499 465.211 -0.377427 0.538585 -0.75331
0.723241 -41.6407 465.108 -0.362422 0.524068 -0.770716
0.92508 -41.6335 465.027 -0.388686 0.504098 -0.771238
1.12675 -41.6226 464.906 -0.422647 0.503128 -0.753811
1.32841 -41.6148 464.819 -0.275011 0.551751 -0.787363
1.53013 -41.6106 464.772 -0.287924 0.494411 -0.820157
1.73157 -41.6005 464.66 -0.33486 0.447661 -0.829137
1.93328 -41.5986 464.638 -0.335934 0.495156 -0.80123
2.13448 -41.5871 464.509 -0.297217 0.544945 -0.784026
2.33606 -41.5842 464.477 -0.213748 0.557439 -0.802231
2.53746 -41.5789 464.418 -0.246931 0.513885 -0.821552
2.73885 -41.5741 464.364 -0.259863 0.491009 -0.831494
2.94013 -41.5686 464.303 -0.224345 0.530057 -0.817746
3.14153 -41.5653 464.266 -0.217414 0.555036 -0.802911
3.34245 -41.5564 464.166 -0.172385 0.552216 -0.815684
3.54389 -41.5547 464.146 -0.152207 0.498241 -0.853575
3.74529 -41.5526 464.123 -0.188741 0.470739 -0.861848
3.94649 -41.5488 464.079 -0.2238 0.500176 -0.836504
4.14769 -41.5452 464.039 -0.180243 0.557996 -0.810033
4.34901 -41.5432 464.017 -0.0488374 0.600844 -0.797873
4.55041 -41.542 464.003 -0.0489074 0.569541 -0.820507
4.75167 -41.5399 463.978 -0.0471229 0.559 -0.827828
4.95319 -41.5399 463.978 -0.0143858 0.562224 -0.82686
5.15505 -41.5398 463.978 -0.00213635 0.538827 -0.842414
5.3562 -41.5398 463.977 -0.0786801 0.510529 -0.856253
5.55728 -41.537 463.944 -0.0833012 0.540804 -0.837014
5.75882 -41.5368 463.942 -0.00767096 0.554165 -0.832372
5.96029 -41.5368 463.942 0.000699703 0.536694 -0.843777
6.16178 -41.5369 463.942 0.058014 0.564491 -0.823398
6.36379 -41.5402 463.978 0.0897648 0.611249 -0.786331
6.56605 -41.541 463.985 0.0811962 0.614328 -0.784862
6.76694 -41.5436 464.014 0.0626156 0.575643 -0.8153
6.96889 -41.5436 464.014 0.0176814 0.544082 -0.838845
7.17058 -41.5437 464.015 0.0402321 0.568093 -0.821981
7.37194 -41.5447 464.026 0.196902 0.599318 -0.775917
7.57499 -41.552 464.106 0.20037 0.556692 -0.806193
7.7769 -41.5539 464.126 0.110156 0.522503 -0.845492
7.9789 -41.5561 464.15 0.197222 0.544343 -0.815349
8.18184 -41.563 464.225 0.169378 0.544839 -0.821256
8.38365 -41.5639 464.235 0.199393 0.529813 -0.824342
8.58717 -41.5731 464.337 0.295991 0.538271 -0.789084
8.7905 -41.5789 464.4 0.190605 0.585941 -0.787619
8.99179 -41.5811 464.426 0.274312 0.589013 -0.760143
9.19616 -41.5912 464.537 0.397291 0.552174 -0.732983
9.39937 -41.5976 464.62 0.4373 0.543556 -0.71646
9.60464 -41.6127 464.774 0.353583 0.54209 -0.762311
9.80664 -41.6134 464.781 0.201352 0.544797 -0.814035
10.0103 -41.6207 464.849 0.226468 0.582576 -0.780588
10.213 -41.6243 464.9 0.345716 0.568872 -0.746234
10.4183 -41.6364 465.025 0.334857 0.525171 -0.782347
10.62 -41.6379 465.051 0.233448 0.496338 -0.836152
10.8244 -41.646 465.14 0.299815 0.498845 -0.813182
11.0285 -41.6538 465.225 0.432965 0.528563 -0.73018
11.234 -41.6667 465.368 0.562221 0.539287 -0.626959
11.4414 -41.6856 465.578 0.58168 0.551572 -0.597844
11.6478 -41.7008 465.746 0.517369 0.543887 -0.660694
11.8524 -41.7091 465.848 0.430901 0.527636 -0.732069
12.0572 -41.7177 465.95 0.4449 0.513411 -0.733808
12.2634 -41.7305 466.091 0.463214 0.512995 -0.722682
12.4702 -41.7451 466.209 0.410758 0.554544 -0.723712
12.6742 -41.7502 466.312 0.450503 0.554066 -0.700042
12.8805 -41.7624 466.47 0.528638 0.528381 -0.664346
13.0873 -41.7759 466.622 0.658377 0.488754 -0.572416
13.3024 -41.8151 466.97 0.706036 0.50453 -0.496954
13.5087 -41.8259 467.18 0.623666 0.545928 -0.559467
13.718 -41.8453 467.346 0.614032 0.505006 -0.606576
13.9271 -41.8639 467.551 0.620576 0.499383 -0.604567
14.1386 -41.8889 467.741 0.622468 0.527472 -0.578193
14.3464 -41.9023 467.983 0.690065 0.487123 -0.535278
14.5592 -41.9297 468.282 0.724651 0.464659 -0.508894
14.7705 -41.9521 468.53 0.720796 0.478444 -0.501542
14.9827 -41.9765 468.801 0.728846 0.465622 -0.501976
15.1968 -42.0055 469.123 0.731025 0.460288 -0.503724
15.4087 -42.0278 469.37 0.697846 0.444264 -0.561819
15.6214 -42.0514 469.633 0.724068 0.46093 -0.513098
15.8349 -42.0768 469.914 0.828211 0.439704 -0.347456
16.0644 -42.1435 470.657 0.856243 0.402842 -0.323366
16.2823 -42.1783 471.044 0.780308 0.434173 -0.450126
16.4973 -42.2052 471.342 0.808209 0.416187 -0.416637
16.72 -42.2505 471.846 0.857826 0.390109 -0.334588
16.9431 -42.2959 472.351 0.853523 0.34998 -0.386021
-4.1604 -41.7964 469.12 -0.731105 0.314329 -0.605543
-3.95488 -41.7777 468.91 -0.739509 0.317137 -0.59376
-3.74917 -41.7547 468.654 -0.712249 0.352736 -0.60686
-3.54399 -41.7355 468.438 -0.687246 0.388939 -0.613531
-3.33891 -41.7152 468.21 -0.686697 0.423719 -0.590686
-3.134 -41.6944 467.978 -0.665063 0.434426 -0.607425
-2.92956 -41.6774 467.788 -0.700236 0.37574 -0.607033
-2.72496 -41.6555 467.542 -0.645844 0.410513 -0.643712
-2.52117 -41.6434 467.407 -0.565839 0.460585 -0.683877
-2.31711 -41.6242 467.192 -0.642274 0.36646 -0.673195
-2.11347 -41.6098 467.031 -0.609182 0.344974 -0.714066
-1.91004 -41.5968 466.885 -0.57269 0.396228 -0.717655
-1.70654 -41.5792 466.688 -0.591784 0.365277 -0.718585
-1.50349 -41.5689 466.573 -0.612052 0.34567 -0.711269
-1.30034 -41.5526 466.391 -0.584072 0.428794 -0.689199
-1.09747 -41.5406 466.247 -0.501612 0.485216 -0.716205
-0.894696 -41.5279 466.116 -0.479431 0.47765 -0.736204
-0.692077 -41.5169 465.991 -0.468763 0.477644 -0.743046
-0.489534 -41.5032 465.867 -0.465126 0.465958 -0.752689
-0.28715 -41.4933 465.755 -0.456126 0.454052 -0.765367
-0.0848661 -41.4847 465.636 -0.424831 0.456872 -0.781528
0.117334 -41.4761 465.534 -0.444099 0.428212 -0.787027
0.319462 -41.4689 465.451 -0.426484 0.470135 -0.772712
0.52148 -41.4587 465.338 -0.404487 0.507948 -0.760512
0.723394 -41.4482 465.22 -0.38628 0.486036 -0.783937
0.92529 -41.4415 465.145 -0.387587 0.468708 -0.793782
1.12707 -41.4328 465.048 -0.409718 0.476087 -0.778121
1.32879 -41.425 464.951 -0.342456 0.532664 -0.773946
1.53035 -41.4148 464.846 -0.332021 0.489746 -0.80617
1.73204 -41.4103 464.796 -0.270883 0.511129 -0.815702
1.93362 -41.4042 464.727 -0.277704 0.534116 -0.798499
2.13524 -41.4002 464.681 -0.297422 0.543386 -0.78503
2.33664 -41.393 464.601 -0.257497 0.583236 -0.77041
2.53798 -41.3858 464.521 -0.270886 0.520203 -0.809944
2.73936 -41.3803 464.458 -0.215816 0.502932 -0.836949
2.94095 -41.3786 464.439 -0.191723 0.539261 -0.820024
3.14225 -41.3733 464.379 -0.231725 0.524153 -0.819492
3.3438 -41.3716 464.36 -0.238424 0.562366 -0.79177
3.54479 -41.3637 464.27 -0.166147 0.629268 -0.759221
3.74617 -41.3609 464.239 -0.135452 0.608728 -0.781731
3.94752 -41.358 464.207 -0.14741 0.57422 -0.805321
4.14892 -41.356 464.184 -0.13363 0.538764 -0.831791
4.35003 -41.3528 464.147 -0.0973781 0.531302 -0.841568
4.55175 -41.3514 464.132 -0.0641512 0.553274 -0.830525
4.75313 -41.351 464.126 -0.0432384 0.559455 -0.827732
4.9546 -41.3502 464.117 -0.0464072 0.546503 -0.83617
5.15561 -41.3474 464.085 -0.0373908 0.535845 -0.843488
5.35737 -41.3474 464.084 -0.0376871 0.537709 -0.842288
5.55909 -41.3474 464.084 -0.0661461 0.566326 -0.821523
5.76016 -41.3452 464.058 -0.0301528 0.594957 -0.803192
5.9617 -41.3452 464.058 0.0388089 0.60122 -0.798141
6.16374 -41.3485 464.094 0.124459 0.601159 -0.789378
6.366 -41.3527 464.141 0.0957123 0.581907 -0.807603
6.56754 -41.3528 464.141 0.0255318 0.558001 -0.829447
6.76892 -41.3517 464.128 0.0181258 0.54603 -0.837569
6.97038 -41.3517 464.128 0.05147 0.546104 -0.836135
7.1728 -41.3559 464.174 0.101597 0.598763 -0.794456
7.37503 -41.3595 464.214 0.133925 0.643595 -0.753558
7.57671 -41.3598 464.217 0.140192 0.613257 -0.777343
7.77887 -41.3628 464.249 0.144925 0.573119 -0.806555
7.98154 -41.3682 464.309 0.185374 0.607309 -0.772536
8.18359 -41.3702 464.331 0.147618 0.60611 -0.781563
8.38591 -41.3735 464.366 0.224024 0.565252 -0.793917
8.58886 -41.3796 464.434 0.331549 0.549114 -0.76717
8.79243 -41.3884 464.532 0.21903 0.546207 -0.808507
8.99459 -41.3903 464.553 0.272231 0.537573 -0.798063
9.19842 -41.3996 464.656 0.407828 0.526615 -0.745891
9.40345 -41.4137 464.776 0.405702 0.562161 -0.720681
9.6079 -41.4172 464.85 0.321366 0.562358 -0.761891
9.80803 -41.4251 464.94 0.256324 0.544195 -0.798842
10.0142 -41.433 465.019 0.239644 0.57816 -0.779937
10.2157 -41.4355 465.055 0.292026 0.557092 -0.777412
10.42 -41.4425 465.131 0.27463 0.571894 -0.772991
10.6231 -41.4465 465.175 0.232774 0.599206 -0.766008
10.8268 -41.453 465.247 0.353945 0.578386 -0.734978
11.0316 -41.4633 465.368 0.481434 0.578315 -0.658614
11.2381 -41.4796 465.578 0.569153 0.57101 -0.59162
11.4456 -41.4989 465.746 0.547261 0.558906 -0.623001
11.6507 -41.5088 465.868 0.48103 0.517852 -0.707417
11.857 -41.5227 466.001 0.416116 0.543577 -0.728952
12.0615 -41.5301 466.104 0.431668 0.577374 -0.693038
12.2668 -41.5397 466.237 0.472442 0.567592 -0.674269
12.4749 -41.5583 466.376 0.400464 0.627829 -0.667427
12.6789 -41.5632 466.471 0.427582 0.626764 -0.651414
12.8857 -41.5766 466.621 0.541848 0.559824 -0.626895
13.0941 -41.595 466.825 0.69336 0.488878 -0.529387
13.3071 -41.627 467.129 0.713414 0.46699 -0.522457
13.5144 -41.6404 467.332 0.600975 0.507641 -0.617357
13.7227 -41.6567 467.513 0.616778 0.490913 -0.615296
13.9325 -41.677 467.739 0.652267 0.474039 -0.591468
14.1431 -41.6987 467.976 0.62378 0.527461 -0.576787
14.3514 -41.7136 468.147 0.702973 0.454138 -0.547346
14.5643 -41.7408 468.45 0.766823 0.351794 -0.536864
14.777 -41.7672 468.745 0.745354 0.395569 -0.536631
14.99 -41.7934 469.038 0.721563 0.479029 -0.499879
15.2018 -41.8154 469.283 0.705579 0.471012 -0.529439
15.4133 -41.8365 469.517 0.722355 0.434647 -0.537852
15.628 -41.8653 469.84 0.76747 0.422099 -0.482517
15.8456 -41.9011 470.239 0.856792 0.391121 -0.336054
16.0711 -41.9566 470.86 0.852809 0.413572 -0.318865
16.289 -41.991 471.244 0.765933 0.480527 -0.427131
16.5058 -42.0219 471.589 0.810702 0.445278 -0.380119
16.7301 -42.071 472.138 0.842655 0.39737 -0.363359
16.9465 -42.0991 472.452 0.845971 0.366876 -0.386957
-4.16123 -41.6008 469.218 -0.72702 0.316224 -0.609462
-3.95544 -41.5797 468.98 -0.728136 0.319272 -0.606534
-3.74984 -41.5584 468.741 -0.69874 0.352976 -0.622231
-3.54499 -41.5436 468.574 -0.667387 0.375269 -0.643248
-3.34006 -41.5259 468.375 -0.704618 0.360066 -0.611446
-3.13505 -41.5047 468.137 -0.702322 0.390108 -0.595449
-2.93015 -41.4823 467.885 -0.695359 0.37656 -0.61211
-2.72581 -41.4651 467.691 -0.636377 0.404076 -0.657075
-2.52174 -41.4495 467.516 -0.630439 0.394792 -0.668346
-2.31768 -41.4313 467.31 -0.662265 0.367679 -0.652853
-2.11379 -41.4129 467.104 -0.564672 0.420944 -0.709895
-1.91051 -41.4038 467.002 -0.594087 0.383144 -0.707292
-1.70693 -41.3854 466.794 -0.587334 0.425499 -0.688469
-1.50375 -41.3731 466.656 -0.532724 0.444576 -0.72011
-1.30069 -41.3606 466.523 -0.568605 0.400285 -0.718651
-1.09774 -41.3477 466.369 -0.520628 0.462887 -0.717413
-0.89494 -41.3361 466.24 -0.47976 0.488123 -0.729086
-0.69228 -41.3257 466.123 -0.481462 0.474791 -0.736727
-0.489693 -41.3131 465.991 -0.472242 0.491115 -0.731979
-0.287247 -41.303 465.867 -0.447273 0.51129 -0.733845
-0.0849018 -41.2931 465.756 -0.434857 0.513496 -0.739744
0.11735 -41.2844 465.638 -0.391473 0.503936 -0.769933
0.319516 -41.2756 465.551 -0.393923 0.458968 -0.79635
0.521587 -41.2661 465.454 -0.447648 0.43104 -0.783464
0.72356 -41.2563 465.342 -0.405056 0.481359 -0.777318
0.925471 -41.2481 465.248 -0.367487 0.503861 -0.781714
1.1273 -41.2398 465.155 -0.362 0.482566 -0.79755
1.32914 -41.2345 465.095 -0.399316 0.493735 -0.77251
1.53066 -41.2225 464.962 -0.310688 0.53634 -0.784737
1.73261 -41.2216 464.949 -0.236365 0.542853 -0.80588
1.93413 -41.2135 464.858 -0.264434 0.517192 -0.813995
2.13582 -41.2097 464.816 -0.261967 0.489483 -0.831733
2.33732 -41.2033 464.743 -0.347454 0.502143 -0.791914
2.5386 -41.1944 464.642 -0.297896 0.527002 -0.795944
2.74015 -41.1907 464.601 -0.169394 0.536183 -0.82693
2.94172 -41.1878 464.568 -0.20327 0.553659 -0.807554
3.14291 -41.1808 464.489 -0.174568 0.569957 -0.802916
3.34467 -41.1802 464.482 -0.153778 0.564317 -0.811109
3.54613 -41.1777 464.454 -0.210307 0.562026 -0.799936
3.74744 -41.1733 464.404 -0.187536 0.567819 -0.801506
3.94859 -41.1677 464.34 -0.195882 0.567593 -0.799668
4.14965 -41.1618 464.273 -0.141883 0.581701 -0.800933
4.35122 -41.1612 464.266 -0.067169 0.584722 -0.808448
4.55282 -41.1609 464.262 -0.055005 0.589897 -0.805603
4.75417 -41.1585 464.235 -0.0595974 0.585636 -0.80838
4.95549 -41.1574 464.221 -0.0596312 0.576437 -0.814963
5.15725 -41.1574 464.221 -0.0341448 0.568248 -0.822149
5.35888 -41.1575 464.222 0.00269336 0.559248 -0.828996
5.56052 -41.1577 464.224 -0.0263757 0.556029 -0.830744
5.76251 -41.1577 464.224 -0.0203293 0.58421 -0.811348
5.96372 -41.1585 464.23 0.0454709 0.609534 -0.791455
6.16546 -41.1585 464.231 0.095484 0.581079 -0.808226
6.36719 -41.1592 464.237 0.0612347 0.523824 -0.849623
6.56881 -41.1593 464.239 0.00946412 0.522566 -0.852546
6.77088 -41.1612 464.259 0.0190711 0.563711 -0.825752
6.97239 -41.1621 464.269 0.125074 0.597433 -0.792105
7.17514 -41.1678 464.332 0.172541 0.605345 -0.777037
7.37714 -41.1696 464.352 0.0927354 0.590265 -0.801865
7.57952 -41.172 464.377 0.0832642 0.618429 -0.781417
7.78093 -41.1736 464.396 0.191072 0.628771 -0.75375
7.98429 -41.1808 464.475 0.180313 0.587943 -0.788549
8.18626 -41.182 464.488 0.102806 0.604322 -0.790079
8.38851 -41.1845 464.516 0.214808 0.640811 -0.737034
8.59189 -41.1924 464.604 0.287589 0.628341 -0.722828
8.79456 -41.1966 464.651 0.21087 0.596084 -0.774737
8.99718 -41.2004 464.692 0.290803 0.559779 -0.775939
9.2006 -41.2075 464.815 0.442525 0.539166 -0.716569
9.40603 -41.2232 464.939 0.385466 0.55167 -0.739646
9.61024 -41.2297 465.019 0.281187 0.587498 -0.758802
9.81146 -41.2332 465.059 0.294649 0.551201 -0.780615
10.016 -41.2404 465.138 0.235474 0.492681 -0.837746
10.2185 -41.2426 465.161 0.311345 0.533314 -0.786537
10.4244 -41.2576 465.33 0.288931 0.624044 -0.726008
10.6267 -41.2588 465.342 0.226105 0.658098 -0.718181
10.8314 -41.2685 465.45 0.386285 0.635603 -0.668426
11.0368 -41.2805 465.585 0.501616 0.614418 -0.608993
11.2419 -41.2912 465.747 0.551796 0.559051 -0.618856
11.4501 -41.3127 465.885 0.498497 0.511115 -0.700188
11.6539 -41.3179 466.002 0.489837 0.506715 -0.709436
11.8612 -41.335 466.165 0.44909 0.573942 -0.684769
12.0656 -41.3417 466.268 0.422746 0.615557 -0.665113
12.271 -41.3515 466.419 0.499159 0.597503 -0.627558
12.4796 -41.3714 466.6 0.408245 0.63223 -0.658499
12.6837 -41.3762 466.654 0.401679 0.620668 -0.673368
12.8908 -41.3903 466.812 0.554021 0.563754 -0.61257
13.0987 -41.4066 466.993 0.693181 0.475154 -0.541967
13.3102 -41.4337 467.297 0.708259 0.439278 -0.552634
13.5189 -41.4512 467.493 0.604527 0.4751 -0.639396
13.7267 -41.4656 467.654 0.621822 0.480134 -0.618715
13.9363 -41.485 467.871 0.683081 0.460329 -0.567008
14.1475 -41.5086 468.135 0.627914 0.45486 -0.631527
14.3542 -41.5182 468.245 0.687132 0.380358 -0.619013
14.567 -41.5453 468.546 0.789419 0.311459 -0.528972
14.7803 -41.5728 468.854 0.804684 0.295448 -0.51497
14.996 -41.6062 469.229 0.749548 0.360056 -0.555462
15.2036 -41.6165 469.398 0.707275 0.421089 -0.567843
15.4204 -41.6516 469.739 0.733338 0.438058 -0.519924
15.6319 -41.6715 469.961 0.816105 0.378312 -0.436867
15.8549 -41.7212 470.52 0.886678 0.313906 -0.339506
16.0787 -41.7717 471.087 0.865857 0.352765 -0.354751
16.2977 -41.8086 471.502 0.787892 0.440256 -0.430582
16.5135 -41.8367 471.817 0.813701 0.425982 -0.395512
16.7341 -41.8757 472.255 0.854486 0.333434 -0.39834
16.9558 -41.9168 472.716 0.852581 0.330515 -0.404802
-4.1622 -41.4065 469.331 -0.718303 0.347289 -0.602852
-3.95654 -41.3873 469.114 -0.702303 0.385756 -0.598299
-3.75104 -41.3679 468.895 -0.691165 0.367157 -0.622485
-3.54557 -41.3466 468.654 -0.671475 0.349595 -0.653379
-3.34061 -41.3291 468.455 -0.699652 0.298944 -0.648938
-3.13572 -41.3101 468.241 -0.73462 0.291416 -0.612707
-2.93087 -41.289 468.003 -0.704037 0.341087 -0.62289
-2.72646 -41.2715 467.805 -0.652331 0.371231 -0.660796
-2.5222 -41.2537 467.604 -0.652932 0.335004 -0.679302
-2.31828 -41.2387 467.434 -0.660548 0.332005 -0.673386
-2.11444 -41.2224 467.249 -0.58025 0.441661 -0.684285
-1.91085 -41.2082 467.089 -0.543003 0.463297 -0.700359
-1.70753 -41.197 466.962 -0.587581 0.425949 -0.687979
-1.50413 -41.1804 466.776 -0.558551 0.445882 -0.699435
-1.30097 -41.1665 466.62 -0.514473 0.462964 -0.721791
-1.0981 -41.1581 466.515 -0.507591 0.470371 -0.721874
-0.89518 -41.1439 466.363 -0.493925 0.480128 -0.724925
-0.692459 -41.1331 466.239 -0.468114 0.474507 -0.745461
-0.489859 -41.1235 466.131 -0.466324 0.462457 -0.754106
-0.287373 -41.1166 466.019 -0.451927 0.498677 -0.739651
-0.0849409 -41.1029 465.899 -0.452075 0.525089 -0.721048
0.117364 -41.0918 465.772 -0.427182 0.537272 -0.727224
0.319552 -41.0798 465.659 -0.394032 0.533024 -0.748748
0.52165 -41.0699 465.559 -0.398966 0.47566 -0.783948
0.723749 -41.0657 465.477 -0.391443 0.476118 -0.787454
0.925713 -41.0573 465.382 -0.387069 0.522604 -0.759647
1.12757 -41.048 465.276 -0.331415 0.528639 -0.781476
1.32945 -41.0424 465.212 -0.370779 0.501958 -0.781384
1.53114 -41.033 465.106 -0.317714 0.531568 -0.785171
1.73292 -41.028 465.05 -0.267332 0.516379 -0.813564
1.93449 -41.0196 464.959 -0.308683 0.44046 -0.843036
2.13617 -41.0149 464.901 -0.233566 0.446393 -0.863817
2.3379 -41.0118 464.866 -0.335281 0.466991 -0.818233
2.53921 -41.0025 464.761 -0.312182 0.495312 -0.810684
2.74078 -40.9984 464.714 -0.14328 0.512678 -0.846541
2.94254 -40.9977 464.705 -0.188312 0.530208 -0.826691
3.144 -40.993 464.652 -0.179153 0.610805 -0.771246
3.34554 -40.9898 464.616 -0.142467 0.622606 -0.769458
3.5468 -40.9838 464.548 -0.207259 0.553146 -0.806891
3.74816 -40.9796 464.499 -0.190318 0.537631 -0.821421
3.94976 -40.9783 464.485 -0.184326 0.563051 -0.805604
4.15124 -40.9759 464.457 -0.141253 0.603582 -0.784688
4.35264 -40.973 464.424 -0.0593233 0.605874 -0.793346
4.55421 -40.9719 464.411 -0.0614162 0.579059 -0.812969
4.75564 -40.9708 464.397 -0.0723551 0.590017 -0.804142
4.95745 -40.9695 464.384 -0.0702694 0.605402 -0.792812
5.15855 -40.9661 464.344 -0.0457491 0.597629 -0.800466
5.36004 -40.9658 464.34 -0.00155145 0.592778 -0.805365
5.56183 -40.9658 464.34 0.0131392 0.578015 -0.81592
5.76385 -40.9668 464.35 0.0185504 0.563793 -0.825708
5.96529 -40.9668 464.35 0.00804775 0.558567 -0.82942
6.16681 -40.9668 464.35 0.0169973 0.552749 -0.833174
6.36875 -40.9677 464.358 0.057016 0.55018 -0.833097
6.57095 -40.9709 464.394 0.0632929 0.576078 -0.814941
6.77263 -40.9711 464.396 0.0732463 0.603593 -0.793921
6.9749 -40.9744 464.433 0.143783 0.59445 -0.791173
7.17704 -40.9769 464.46 0.147786 0.543214 -0.826485
7.37918 -40.9793 464.487 0.138823 0.529109 -0.837121
7.58182 -40.9843 464.542 0.121622 0.544172 -0.830111
7.78378 -40.9854 464.555 0.13615 0.570797 -0.809725
7.98585 -40.987 464.572 0.196723 0.560251 -0.804624
8.18899 -40.9939 464.649 0.183333 0.566116 -0.80368
8.3918 -40.9989 464.704 0.221742 0.608701 -0.761783
8.59454 -41.0033 464.754 0.235645 0.569987 -0.787138
8.79724 -41.0073 464.798 0.179431 0.591374 -0.786181
8.9999 -41.011 464.839 0.304366 0.595779 -0.743242
9.20343 -41.0183 464.948 0.442132 0.52583 -0.726651
9.40799 -41.0299 465.059 0.414818 0.490323 -0.766492
9.61224 -41.0396 465.16 0.249531 0.513147 -0.821228
9.81454 -41.0408 465.173 0.216442 0.51772 -0.827719
10.0181 -41.047 465.242 0.298829 0.500562 -0.812489
10.2226 -41.057 465.354 0.409652 0.557681 -0.721926
10.4277 -41.0686 465.484 0.33221 0.576996 -0.746131
10.6305 -41.0713 465.513 0.264518 0.592669 -0.760772
10.8354 -41.0815 465.628 0.433718 0.581691 -0.688131
11.0406 -41.0924 465.751 0.497133 0.518252 -0.695898
11.2461 -41.1044 465.885 0.514637 0.460911 -0.722987
11.4516 -41.1158 466.002 0.502405 0.466375 -0.728068
11.6578 -41.1293 466.165 0.532747 0.531776 -0.658328
11.865 -41.1456 466.348 0.486282 0.572519 -0.660115
12.0705 -41.1559 466.463 0.444416 0.591718 -0.67258
12.2774 -41.1702 466.602 0.511463 0.568992 -0.643936
12.4833 -41.181 466.741 0.420979 0.536413 -0.731462
12.6873 -41.1851 466.812 0.432242 0.53788 -0.723776
12.8955 -41.2027 466.988 0.560019 0.516707 -0.647605
13.1027 -41.2163 467.141 0.692072 0.428237 -0.581076
13.3141 -41.2428 467.44 0.70241 0.420419 -0.574341
13.522 -41.2575 467.605 0.628652 0.430447 -0.647697
13.7322 -41.279 467.847 0.650975 0.423201 -0.630185
13.9412 -41.2964 468.043 0.670826 0.427696 -0.605861
14.1506 -41.3142 468.24 0.602634 0.424141 -0.67597
14.358 -41.3258 468.373 0.664593 0.44439 -0.600695
14.5717 -41.3549 468.7 0.747268 0.447285 -0.491453
14.7835 -41.3781 468.962 0.77962 0.417713 -0.466592
15.0011 -41.4163 469.34 0.74681 0.421657 -0.514277
15.2107 -41.432 469.569 0.717683 0.450904 -0.530675
15.4256 -41.4614 469.901 0.733723 0.453449 -0.505999
15.6381 -41.4838 470.153 0.812843 0.408749 -0.414982
15.8603 -41.531 470.686 0.88665 0.322556 -0.331375
16.0831 -41.5786 471.223 0.881929 0.296929 -0.366106
16.3042 -41.6205 471.696 0.819217 0.365647 -0.441798
16.5197 -41.6474 471.999 0.809199 0.383411 -0.445188
16.7395 -41.6842 472.415 0.861972 0.299651 -0.408918
-4.1635 -41.2154 469.481 -0.707187 0.318577 -0.631185
-3.9574 -41.1923 469.22 -0.735059 0.301961 -0.607048
-3.75156 -41.1698 468.963 -0.717466 0.314558 -0.621527
-3.54644 -41.1529 468.772 -0.69585 0.338391 -0.63347
-3.3412 -41.1326 468.541 -0.691358 0.318822 -0.648365
-3.13641 -41.1155 468.346 -0.71782 0.28227 -0.636442
-2.93149 -41.0942 468.104 -0.702552 0.330952 -0.629993
-2.72706 -41.0771 467.91 -0.672826 0.375043 -0.637689
-2.52262 -41.0571 467.683 -0.640076 0.392956 -0.660218
-2.31874 -41.0435 467.529 -0.584696 0.424756 -0.691168
-2.11503 -41.0307 467.384 -0.578002 0.426382 -0.695782
-1.91143 -41.0174 467.232 -0.567442 0.436634 -0.698112
-1.70783 -41.0008 467.043 -0.582007 0.419778 -0.696459
-1.50453 -40.9881 466.899 -0.563671 0.418254 -0.712277
-1.30141 -40.9772 466.774 -0.509925 0.462044 -0.725598
-1.09833 -40.9635 466.62 -0.504661 0.461841 -0.729398
-0.89544 -40.9526 466.499 -0.510282 0.463598 -0.724354
-0.692628 -40.9397 466.354 -0.475764 0.490995 -0.729775
-0.489973 -40.9294 466.232 -0.429551 0.480003 -0.764907
-0.287438 -40.9215 466.142 -0.43543 0.440221 -0.785243
-0.0849755 -40.9107 466.037 -0.465161 0.44892 -0.762952
0.117389 -40.9028 465.921 -0.449655 0.506418 -0.735765
0.319655 -40.8924 465.812 -0.454313 0.518862 -0.724142
0.521781 -40.8791 465.66 -0.388127 0.53053 -0.753588
0.72392 -40.8739 465.601 -0.330127 0.522301 -0.786268
0.925953 -40.8663 465.515 -0.400482 0.492147 -0.772921
1.12785 -40.8567 465.405 -0.357138 0.507473 -0.78417
1.32978 -40.8507 465.336 -0.353166 0.480541 -0.802717
1.53154 -40.842 465.238 -0.349125 0.508514 -0.7871
1.7333 -40.8352 465.16 -0.34439 0.509436 -0.788588
1.93486 -40.8257 465.052 -0.301413 0.513441 -0.803448
2.13669 -40.8231 465.022 -0.179475 0.563148 -0.80663
2.33841 -40.8191 464.976 -0.298865 0.521084 -0.799469
2.53981 -40.8104 464.878 -0.305157 0.550462 -0.777092
2.74141 -40.8063 464.83 -0.108126 0.607391 -0.78701
2.94328 -40.8062 464.829 -0.0709 0.576054 -0.814331
3.14515 -40.8061 464.826 -0.177602 0.52284 -0.833724
3.34649 -40.7998 464.755 -0.249334 0.48081 -0.840627
3.54792 -40.7951 464.702 -0.237313 0.495418 -0.835609
3.74936 -40.791 464.655 -0.15491 0.559274 -0.81438
3.95086 -40.788 464.62 -0.132304 0.564432 -0.814808
4.15223 -40.784 464.574 -0.153065 0.521462 -0.839433
4.35347 -40.7813 464.543 -0.104586 0.497936 -0.860884
4.55543 -40.78 464.527 -0.0476186 0.490748 -0.87
4.75702 -40.7799 464.527 -0.052586 0.507432 -0.860086
4.95856 -40.7782 464.507 -0.0874601 0.524222 -0.847079
5.16002 -40.7778 464.501 -0.0547044 0.563679 -0.82418
5.36195 -40.7777 464.5 -0.0223807 0.596519 -0.802287
5.56308 -40.7765 464.484 -0.00652243 0.592221 -0.805749
5.7655 -40.7765 464.484 0.0110791 0.577001 -0.816668
5.96694 -40.7765 464.484 0.00023536 0.580427 -0.814313
6.16839 -40.7765 464.484 0.0145396 0.591364 -0.806274
6.37045 -40.777 464.489 0.0911501 0.582643 -0.807601
6.57271 -40.7803 464.526 0.104865 0.559674 -0.822051
6.77479 -40.7823 464.549 0.0693292 0.564317 -0.822642
6.97658 -40.7826 464.551 0.0744726 0.588211 -0.805272
7.17839 -40.783 464.554 0.125136 0.581656 -0.803752
7.38112 -40.7883 464.615 0.152036 0.576449 -0.802865
7.58293 -40.7885 464.616 0.159318 0.543665 -0.824043
7.78604 -40.7955 464.695 0.134018 0.52677 -0.839376
7.98811 -40.7968 464.709 0.198346 0.588502 -0.783788
8.19141 -40.8042 464.793 0.247593 0.576571 -0.778629
8.39375 -40.8066 464.819 0.176138 0.568206 -0.803814
8.59631 -40.8099 464.855 0.252646 0.576714 -0.776899
8.80043 -40.8203 464.972 0.216168 0.585313 -0.78146
9.00254 -40.8211 464.981 0.254408 0.612972 -0.748025
9.20648 -40.83 465.081 0.38767 0.563397 -0.729586
9.41022 -40.8376 465.167 0.406468 0.483633 -0.775166
9.61449 -40.8471 465.274 0.250806 0.504464 -0.826204
9.81683 -40.8483 465.287 0.202632 0.57583 -0.79206
10.0211 -40.8572 465.387 0.377105 0.583455 -0.719286
10.2258 -40.8676 465.505 0.401542 0.583332 -0.706037
10.4297 -40.8743 465.579 0.334904 0.575784 -0.745863
10.6344 -40.884 465.689 0.311545 0.579525 -0.753054
10.8376 -40.8877 465.751 0.398479 0.529196 -0.74911
11.0427 -40.8981 465.861 0.465344 0.440845 -0.767535
11.2479 -40.9086 465.967 0.522536 0.434841 -0.733396
11.4557 -40.928 466.165 0.566066 0.488666 -0.663908
11.6623 -40.9425 466.348 0.552868 0.53434 -0.639389
11.8683 -40.9546 466.486 0.504671 0.532965 -0.679158
12.0736 -40.9638 466.625 0.47066 0.518917 -0.713585
12.2803 -40.9774 466.742 0.464516 0.513577 -0.721432
12.4858 -40.9864 466.843 0.434532 0.503361 -0.746866
12.6905 -40.9926 466.988 0.471245 0.498288 -0.727762
12.8984 -41.0091 467.099 0.558675 0.453109 -0.694676
13.1066 -41.0256 467.285 0.700681 0.395523 -0.593807
13.318 -41.0518 467.582 0.681319 0.435436 -0.588388
13.5252 -41.0644 467.732 0.619487 0.469796 -0.628909
13.7349 -41.0839 467.945 0.654678 0.443909 -0.611835
13.9439 -41.1009 468.137 0.642319 0.447055 -0.62255
14.1542 -41.1211 468.366 0.621062 0.485352 -0.615399
14.3637 -41.1386 468.6 0.679453 0.511931 -0.525613
14.578 -41.1692 468.91 0.723851 0.502226 -0.473085
14.7909 -41.1948 469.201 0.744152 0.484708 -0.459669
15.0054 -41.2243 469.534 0.7171 0.507788 -0.477408
15.2168 -41.2446 469.764 0.7052 0.503451 -0.499229
15.4313 -41.2726 470.081 0.748508 0.454306 -0.483055
15.6463 -41.3014 470.407 0.825897 0.373134 -0.422689
15.8664 -41.3424 470.873 0.888209 0.290969 -0.355557
16.0891 -41.3893 471.404 0.882561 0.294495 -0.366549
16.3095 -41.4291 471.856 0.828047 0.34564 -0.441442
16.5252 -41.4559 472.16 0.811657 0.33103 -0.481282
16.743 -41.4876 472.519 0.833991 0.341828 -0.433143
-4.16387 -41.0149 469.526 -0.702074 0.35063 -0.619799
-3.95815 -40.9962 469.312 -0.732398 0.304985 -0.60875
-3.75259 -40.9772 469.096 -0.701841 0.352668 -0.618907
-3.54717 -40.9576 468.872 -0.701546 0.363646 -0.612858
-3.34177 -40.9359 468.624 -0.695638 0.361722 -0.620681
-3.1369 -40.9183 468.423 -0.681309 0.348901 -0.643495
-2.93227 -40.9016 468.233 -0.677558 0.363524 -0.639347
-2.72776 -40.8841 468.033 -0.667112 0.389914 -0.634766
-2.52344 -40.867 467.838 -0.616076 0.457689 -0.641071
-2.31946 -40.8528 467.676 -0.562734 0.503735 -0.655424
-2.11545 -40.8354 467.482 -0.569515 0.44003 -0.694281
-1.91187 -40.8234 467.34 -0.580924 0.419209 -0.697704
-1.70831 -40.8092 467.178 -0.58349 0.437979 -0.683896
-1.50483 -40.7932 467.016 -0.532527 0.457746 -0.711957
-1.30168 -40.7824 466.872 -0.516351 0.442754 -0.733042
-1.09864 -40.7718 466.751 -0.504248 0.450373 -0.736816
-0.895683 -40.7604 466.619 -0.493176 0.469929 -0.732082
-0.692856 -40.7498 466.499 -0.503106 0.469893 -0.725317
-0.49011 -40.7371 466.354 -0.461031 0.499437 -0.733494
-0.287491 -40.7246 466.232 -0.411042 0.479031 -0.775612
-0.0850121 -40.7192 466.142 -0.409607 0.443232 -0.79735
0.117406 -40.7122 466.054 -0.448699 0.444692 -0.775189
0.319713 -40.6992 465.921 -0.475913 0.454306 -0.753069
0.52196 -40.6918 465.83 -0.416864 0.500338 -0.758871
0.724083 -40.6816 465.712 -0.349816 0.510224 -0.785684
0.926168 -40.6742 465.635 -0.401622 0.455161 -0.794687
1.1281 -40.664 465.519 -0.390558 0.489561 -0.779612
1.33002 -40.6563 465.43 -0.312459 0.533412 -0.786028
1.53199 -40.6522 465.384 -0.34888 0.509977 -0.786261
1.73367 -40.6421 465.267 -0.346622 0.519717 -0.780863
1.93557 -40.6389 465.231 -0.254626 0.55033 -0.795174
2.13729 -40.6328 465.162 -0.2123 0.569439 -0.794146
2.33901 -40.6278 465.104 -0.252046 0.570413 -0.78173
2.54077 -40.6241 465.062 -0.254415 0.596213 -0.761448
2.74236 -40.6185 464.998 -0.154243 0.608959 -0.77806
2.94406 -40.6153 464.96 -0.135782 0.53682 -0.832699
3.14543 -40.6081 464.878 -0.23094 0.41646 -0.879334
3.34696 -40.6038 464.831 -0.240962 0.411267 -0.879089
3.54849 -40.6004 464.789 -0.164937 0.505261 -0.847058
3.75037 -40.5998 464.782 -0.149768 0.564957 -0.811415
3.95173 -40.5953 464.73 -0.188519 0.540558 -0.819913
4.15318 -40.5916 464.687 -0.18514 0.526821 -0.829568
4.35446 -40.5873 464.638 -0.110534 0.574342 -0.811119
4.5563 -40.5868 464.631 -0.0248583 0.580253 -0.814057
4.75797 -40.5867 464.63 -0.0280199 0.56993 -0.821215
4.95981 -40.5864 464.625 -0.0346431 0.549488 -0.834783
5.16152 -40.5863 464.624 -0.00847778 0.533789 -0.845575
5.36331 -40.5863 464.624 -0.0299037 0.538641 -0.842004
5.56496 -40.5854 464.614 -0.0290246 0.540552 -0.84081
5.76669 -40.5855 464.614 0.0161841 0.542326 -0.840012
5.96879 -40.5869 464.628 0.0163883 0.563659 -0.825845
6.1705 -40.587 464.629 0.00608797 0.592119 -0.805828
6.37229 -40.587 464.629 0.0590292 0.614061 -0.787048
6.57429 -40.5883 464.644 0.105011 0.60473 -0.789477
6.77647 -40.5907 464.67 0.103225 0.566533 -0.817548
6.97895 -40.5947 464.715 0.0710952 0.56467 -0.822249
7.18102 -40.5961 464.73 0.121123 0.582406 -0.803823
7.38341 -40.5992 464.765 0.107277 0.595247 -0.79635
7.58534 -40.5997 464.77 0.129641 0.597509 -0.791313
7.78785 -40.6032 464.809 0.218058 0.584265 -0.78172
7.9912 -40.6103 464.889 0.189303 0.604878 -0.77349
8.19305 -40.6109 464.897 0.224367 0.57433 -0.787277
8.39687 -40.6198 464.997 0.202706 0.566402 -0.798811
8.5994 -40.6226 465.028 0.252292 0.599821 -0.759318
8.80265 -40.6286 465.095 0.268031 0.560299 -0.783725
9.00598 -40.6346 465.164 0.239421 0.531586 -0.812462
9.20898 -40.639 465.213 0.305357 0.540365 -0.784068
9.41231 -40.6446 465.276 0.380577 0.555558 -0.739268
9.61724 -40.6567 465.414 0.316897 0.56646 -0.760723
9.82068 -40.6622 465.475 0.265219 0.559047 -0.785573
10.0248 -40.6703 465.559 0.388248 0.572733 -0.721969
10.2293 -40.6792 465.668 0.370852 0.588598 -0.718346
10.4336 -40.6874 465.761 0.323695 0.612992 -0.720737
10.6374 -40.6931 465.825 0.266839 0.610438 -0.745763
10.8406 -40.6964 465.862 0.319277 0.52949 -0.785941
11.0454 -40.7057 465.967 0.464198 0.490584 -0.73746
11.2517 -40.72 466.134 0.56207 0.507199 -0.653319
11.459 -40.7374 466.326 0.590606 0.515514 -0.620829
11.6658 -40.7522 466.486 0.539982 0.515807 -0.665103
11.8719 -40.7644 466.634 0.483222 0.519126 -0.704986
12.0772 -40.7733 466.743 0.464359 0.513967 -0.721255
12.2843 -40.7878 466.876 0.448693 0.499412 -0.741122
12.4903 -40.7985 466.991 0.444326 0.489376 -0.75039
12.6937 -40.8001 467.097 0.463388 0.464737 -0.754514
12.9015 -40.816 467.217 0.563276 0.464639 -0.68325
13.1107 -40.8357 467.44 0.697198 0.457754 -0.551703
13.3221 -40.8611 467.723 0.665492 0.484227 -0.568018
13.5303 -40.8767 467.907 0.586141 0.544331 -0.600119
13.7376 -40.8887 468.12 0.612387 0.553061 -0.564895
13.9497 -40.9147 468.339 0.617676 0.563841 -0.548233
14.161 -40.9375 468.561 0.646086 0.543088 -0.536309
14.371 -40.9561 468.809 0.715447 0.462387 -0.523769
14.5835 -40.9809 469.092 0.738557 0.464749 -0.488407
14.7968 -41.0076 469.395 0.744699 0.48476 -0.458728
15.0117 -41.0378 469.739 0.724014 0.470997 -0.503951
15.223 -41.0574 469.963 0.70825 0.469827 -0.52692
15.4367 -41.0829 470.253 0.752371 0.426287 -0.502212
15.6497 -41.1059 470.514 0.845514 0.284688 -0.451729
15.8706 -41.1487 471.002 0.897625 0.245664 -0.365949
16.0947 -41.1987 471.572 0.873128 0.32338 -0.364791
16.3138 -41.235 471.986 0.811484 0.36939 -0.452819
16.5289 -41.2602 472.272 0.823795 0.329277 -0.461454
16.7524 -41.3055 472.789 0.819346 0.402636 -0.408114
-4.16509 -40.8228 469.667 -0.70837 0.38956 -0.588604
-3.95911 -40.802 469.43 -0.694376 0.393892 -0.602238
-3.7534 -40.782 469.2 -0.690799 0.372418 -0.619759
-3.54811 -40.7645 468.999 -0.704818 0.361408 -0.610422
-3.34279 -40.7445 468.77 -0.705063 0.366727 -0.606958
-3.13768 -40.7247 468.543 -0.659497 0.40587 -0.632719
-2.933 -40.7081 468.353 -0.654009 0.403323 -0.640002
-2.72836 -40.6896 468.14 -0.632097 0.406127 -0.659935
-2.52432 -40.6778 468.004 -0.607037 0.42545 -0.671192
-2.32005 -40.6598 467.798 -0.640013 0.3968 -0.657976
-2.11602 -40.6431 467.606 -0.588944 0.414619 -0.693712
-1.91244 -40.6322 467.476 -0.55609 0.453658 -0.696389
-1.70873 -40.6159 467.294 -0.585646 0.426289 -0.689418
-1.50531 -40.6029 467.145 -0.55432 0.438824 -0.707222
-1.30208 -40.5916 466.995 -0.50299 0.483099 -0.71667
-1.09892 -40.5788 466.87 -0.481755 0.48165 -0.732069
-0.895923 -40.5679 466.743 -0.490714 0.468204 -0.734836
-0.693025 -40.5562 466.609 -0.49259 0.447716 -0.74626
-0.490284 -40.5477 466.499 -0.505706 0.445928 -0.738519
-0.287583 -40.533 466.351 -0.441501 0.499511 -0.745363
-0.0850466 -40.5265 466.258 -0.39076 0.483262 -0.783431
0.117409 -40.5139 466.143 -0.433626 0.433959 -0.789714
0.319775 -40.5064 466.057 -0.449465 0.437379 -0.778897
0.522034 -40.4963 465.922 -0.432614 0.453103 -0.77945
0.724233 -40.4884 465.838 -0.405181 0.46835 -0.78516
0.926298 -40.4782 465.72 -0.366421 0.458938 -0.80939
1.12847 -40.4755 465.682 -0.362579 0.473381 -0.802775
1.33041 -40.4665 465.578 -0.32974 0.543072 -0.772233
1.53232 -40.4591 465.493 -0.329684 0.551132 -0.766526
1.73418 -40.4523 465.414 -0.326231 0.537031 -0.777928
1.93593 -40.4446 465.326 -0.243449 0.508012 -0.82623
2.13787 -40.4419 465.294 -0.214868 0.478245 -0.851536
2.33976 -40.4388 465.259 -0.223609 0.513567 -0.828401
2.54142 -40.4326 465.188 -0.265975 0.530885 -0.804623
2.743 -40.4261 465.113 -0.266188 0.508173 -0.819087
2.94452 -40.4198 465.04 -0.275875 0.452691 -0.847917
3.14609 -40.4148 464.982 -0.227936 0.488565 -0.842229
3.34788 -40.4131 464.962 -0.126278 0.555871 -0.821621
3.54974 -40.4124 464.954 -0.0812965 0.592725 -0.801291
3.75149 -40.4106 464.934 -0.177925 0.559745 -0.809338
3.95258 -40.403 464.845 -0.209416 0.516345 -0.830381
4.15452 -40.4021 464.835 -0.125804 0.564869 -0.815534
4.35617 -40.4009 464.82 -0.104038 0.605011 -0.789391
4.55775 -40.3985 464.792 -0.038361 0.613877 -0.788469
4.7596 -40.3984 464.791 -0.054464 0.603368 -0.795601
4.96097 -40.3946 464.746 -0.0544778 0.583678 -0.810156
5.1628 -40.3946 464.746 -0.00182589 0.552129 -0.833757
5.36475 -40.3945 464.746 -0.0273707 0.538405 -0.842242
5.56628 -40.3934 464.731 -0.0264296 0.545959 -0.837395
5.76813 -40.3935 464.732 0.0447261 0.567978 -0.821828
5.9703 -40.3958 464.758 0.0559699 0.58323 -0.810376
6.1727 -40.3969 464.769 0.041077 0.585667 -0.80951
6.37413 -40.3993 464.796 0.0495192 0.602102 -0.796882
6.57645 -40.3996 464.801 0.0507082 0.607853 -0.792429
6.77822 -40.3999 464.803 0.0971675 0.581264 -0.807893
6.98046 -40.4016 464.821 0.101781 0.545793 -0.831715
7.18257 -40.403 464.837 0.14086 0.550648 -0.822767
7.3855 -40.4088 464.902 0.113837 0.587052 -0.801506
7.58741 -40.409 464.904 0.122304 0.624834 -0.771119
7.79057 -40.4154 464.977 0.230426 0.639173 -0.733731
7.99328 -40.4193 465.022 0.154024 0.596799 -0.787469
8.19552 -40.4208 465.038 0.215337 0.534966 -0.816971
8.39908 -40.4285 465.116 0.264639 0.530341 -0.805422
8.60172 -40.4315 465.159 0.213426 0.52225 -0.825654
8.80483 -40.4366 465.217 0.233081 0.51268 -0.826337
9.00734 -40.4388 465.24 0.261903 0.547562 -0.794722
9.21161 -40.4485 465.352 0.336665 0.577157 -0.744007
9.41618 -40.4592 465.473 0.364344 0.598571 -0.713419
9.6197 -40.465 465.539 0.295378 0.568566 -0.767779
9.82236 -40.4669 465.569 0.329359 0.508381 -0.795657
10.0279 -40.4803 465.713 0.402202 0.570277 -0.716253
10.2322 -40.4884 465.805 0.383832 0.59763 -0.703926
10.4372 -40.499 465.927 0.312405 0.57977 -0.752509
10.6404 -40.5025 465.965 0.17526 0.583008 -0.793338
10.8435 -40.5052 465.994 0.313688 0.545398 -0.777265
11.0492 -40.5174 466.134 0.505826 0.529131 -0.681293
11.2556 -40.5315 466.295 0.581708 0.504922 -0.637706
11.4627 -40.5477 466.48 0.579774 0.492193 -0.649314
11.6699 -40.5637 466.634 0.523398 0.516776 -0.677494
11.8753 -40.5732 466.77 0.474354 0.511126 -0.716756
12.0808 -40.5824 466.893 0.449314 0.497229 -0.742213
12.2866 -40.5926 466.998 0.44115 0.483672 -0.755942
12.4923 -40.6019 467.097 0.428348 0.477991 -0.766839
12.6972 -40.6084 467.217 0.487317 0.504898 -0.712461
12.9065 -40.6287 467.403 0.606133 0.50155 -0.617293
13.116 -40.6488 467.632 0.684296 0.50238 -0.528538
13.3268 -40.6723 467.901 0.649508 0.549194 -0.525857
13.5363 -40.6914 468.115 0.592229 0.577733 -0.561685
13.7455 -40.7088 468.319 0.623285 0.555556 -0.55034
13.9561 -40.7298 468.557 0.624858 0.540335 -0.563552
14.1648 -40.7449 468.73 0.640231 0.486033 -0.594875
14.3745 -40.7624 468.929 0.763237 0.347803 -0.544521
14.5907 -40.7972 469.328 0.786908 0.363544 -0.498609
14.8035 -40.8219 469.611 0.733895 0.470876 -0.489565
15.0154 -40.8437 469.86 0.719455 0.463922 -0.516876
15.2287 -40.8684 470.142 0.725712 0.395865 -0.562701
15.4407 -40.8892 470.379 0.736525 0.357389 -0.574286
15.6533 -40.9108 470.626 0.838277 0.333286 -0.431523
15.8775 -40.9621 471.215 0.886168 0.327709 -0.327587
16.1019 -41.0124 471.791 0.8572 0.361346 -0.36693
16.3187 -41.0422 472.132 0.796763 0.381834 -0.468371
16.5356 -41.0717 472.469 0.848532 0.326441 -0.41645
16.7599 -41.1186 473.007 0.865055 0.33122 -0.376793
-4.16631 -40.6305 469.809 -0.719059 0.355807 -0.596956
-3.96001 -40.6072 469.54 -0.711688 0.377778 -0.59227
-3.75448 -40.5898 469.339 -0.686926 0.396087 -0.609301
-3.54879 -40.5685 469.093 -0.701735 0.361241 -0.614062
-3.34352 -40.5496 468.876 -0.699525 0.350341 -0.622837
-3.13852 -40.5318 468.671 -0.666266 0.392852 -0.633843
-2.93376 -40.5149 468.476 -0.662526 0.387916 -0.640766
-2.7291 -40.497 468.269 -0.631212 0.384577 -0.673552
-2.52479 -40.4818 468.094 -0.630336 0.374634 -0.679946
-2.32049 -40.464 467.889 -0.651579 0.355241 -0.67026
-2.11659 -40.4506 467.734 -0.56111 0.43991 -0.701167
-1.91288 -40.4383 467.592 -0.574792 0.43305 -0.694321
-1.70913 -40.422 467.405 -0.58808 0.413371 -0.695188
-1.50571 -40.4102 467.268 -0.524929 0.463387 -0.713948
-1.30242 -40.3989 467.138 -0.51536 0.464177 -0.720378
-1.09921 -40.3863 466.993 -0.504398 0.428589 -0.749596
-0.896169 -40.3757 466.87 -0.517892 0.429319 -0.739914
-0.693186 -40.362 466.713 -0.483139 0.479899 -0.732307
-0.490366 -40.3507 466.608 -0.469233 0.460803 -0.753313
-0.287686 -40.343 466.493 -0.47547 0.472457 -0.7421
-0.0850825 -40.3342 466.355 -0.425679 0.501712 -0.753049
0.117426 -40.3227 466.267 -0.417062 0.482048 -0.770512
0.319831 -40.3127 466.144 -0.432435 0.466556 -0.771574
0.522167 -40.3053 466.057 -0.423049 0.456934 -0.782458
0.72439 -40.2956 465.946 -0.419473 0.482299 -0.769044
0.926527 -40.2865 465.84 -0.339889 0.521527 -0.782614
1.12866 -40.2803 465.769 -0.281741 0.502797 -0.817201
1.33078 -40.276 465.717 -0.331181 0.482623 -0.810799
1.53279 -40.2695 465.644 -0.360117 0.48917 -0.794373
1.73459 -40.26 465.534 -0.383784 0.484159 -0.78632
1.93636 -40.2517 465.437 -0.280384 0.51478 -0.810177
2.13826 -40.2475 465.389 -0.16636 0.513736 -0.841665
2.34018 -40.2443 465.352 -0.195115 0.503914 -0.841428
2.54208 -40.2413 465.318 -0.290426 0.544234 -0.787059
2.74357 -40.2327 465.218 -0.310525 0.582126 -0.751467
2.94519 -40.2271 465.153 -0.220676 0.598844 -0.769862
3.14705 -40.2253 465.131 -0.141788 0.609191 -0.780245
3.34874 -40.2221 465.094 -0.0756796 0.594328 -0.800654
3.55074 -40.2216 465.088 -0.119873 0.567106 -0.814875
3.75206 -40.2149 465.01 -0.236555 0.502136 -0.831806
3.95373 -40.2122 464.979 -0.155101 0.519224 -0.840446
4.15556 -40.2112 464.967 -0.0694415 0.569715 -0.818903
4.35722 -40.2088 464.939 -0.0985091 0.550448 -0.829037
4.55894 -40.2072 464.92 -0.0563877 0.537776 -0.8412
4.76082 -40.207 464.917 -0.0878419 0.514902 -0.852737
4.96223 -40.2044 464.886 -0.10165 0.53591 -0.838133
5.16429 -40.2029 464.87 -0.0198643 0.573577 -0.818911
5.36586 -40.2029 464.868 -0.0168833 0.56586 -0.824328
5.56786 -40.2029 464.868 0.00506811 0.571073 -0.820884
5.77021 -40.2046 464.887 0.0661544 0.582474 -0.810153
5.97188 -40.2061 464.904 0.0594773 0.563066 -0.824269
6.174 -40.2062 464.905 0.065424 0.586275 -0.807466
6.37622 -40.2082 464.928 0.0578601 0.608953 -0.791093
6.57822 -40.2083 464.928 0.0157808 0.588688 -0.808206
6.77984 -40.2089 464.935 0.0480489 0.607356 -0.792975
6.98235 -40.2107 464.953 0.106164 0.621831 -0.775923
7.18508 -40.2152 465.005 0.180747 0.601028 -0.778522
7.38773 -40.2191 465.049 0.172346 0.569828 -0.803488
