-1.20832 -43.4571 491.97 -0.514942 -0.488033 0.70474
-1.40458 -43.4238 491.898 -0.39734 -0.53283 0.747136
-1.60307 -43.4206 491.841 -0.4183 -0.517839 0.746236
-1.79361 -43.3081 491.732 -0.539307 -0.450708 0.711344
-1.98615 -43.2216 491.635 -0.552135 -0.451414 0.70098
-2.18014 -43.1542 491.547 -0.60981 -0.463592 0.642817
-2.37016 -43.0303 491.433 -0.647601 -0.462247 0.605756
-2.56023 -42.9038 491.315 -0.597143 -0.471813 0.648701
-2.75496 -42.8447 491.233 -0.491549 -0.538401 0.684473
-2.94861 -42.7677 491.141 -0.41003 -0.575654 0.707459
-3.14446 -42.7213 491.063 -0.453047 -0.530496 0.716466
-3.33897 -42.6548 490.975 -0.609519 -0.475462 0.634368
-3.52949 -42.5292 490.86 -0.660688 -0.477628 0.579105
-3.72184 -42.4274 490.755 -0.634928 -0.514769 0.57609
-3.91276 -42.3045 490.641 -0.641171 -0.49397 0.587276
-4.10381 -42.1825 490.528 -0.641139 -0.473752 0.603739
-4.29617 -42.0774 490.422 -0.65555 -0.472031 0.589441
-4.48524 -41.9211 490.292 -0.721042 -0.413418 0.556044
-4.67356 -41.7451 490.149 -0.763064 -0.364281 0.533884
-4.86059 -41.5603 490.01 -0.743579 -0.390141 0.543029
-5.04984 -41.4009 489.88 -0.722077 -0.424873 0.545974
-5.23957 -41.2421 489.747 -0.735662 -0.4264 0.526292
-5.42963 -41.0819 489.611 -0.76927 -0.408458 0.491311
-5.6157 -40.8709 489.459 -0.805132 -0.399305 0.438541
-5.8035 -40.677 489.311 -0.813073 -0.456356 0.361457
-5.99203 -40.4917 489.167 -0.760354 -0.554917 0.337534
-6.18518 -40.3777 489.057 -0.681885 -0.587372 0.43592
-6.37274 -40.1715 488.903 -0.776148 -0.41745 0.472579
-6.55667 -39.9027 488.719 -0.868203 -0.251084 0.427995
-6.73818 -39.59 488.515 -0.900179 -0.234904 0.36674
-6.91672 -39.2233 488.285 -0.907318 -0.268804 0.323292
-7.10149 -38.9547 488.102 -0.89367 -0.313047 0.321491
-7.28188 -38.6081 487.881 -0.912731 -0.253271 0.320586
-7.45651 -38.1585 487.612 -0.925805 -0.193374 0.324795
-7.63484 -37.7646 487.369 -0.938549 -0.234307 0.25343
-7.81144 -37.3347 487.109 -0.944888 -0.268033 0.188
-7.99182 -36.9632 486.876 -0.942323 -0.311239 0.123115
-8.16352 -36.4338 486.569 -0.928773 -0.321998 0.183572
10.6016 -39.9508 493.834 0.552354 -0.447129 0.703548
10.3813 -40.1531 493.87 0.458819 -0.444288 0.769476
10.1653 -40.3143 493.888 0.433849 -0.463838 0.772418
9.94673 -40.5027 493.918 0.52314 -0.471664 0.709829
9.72567 -40.7179 493.961 0.489222 -0.475048 0.731431
9.51087 -40.8717 493.975 0.389592 -0.482921 0.784223
9.29916 -40.9953 493.976 0.317962 -0.507677 0.800727
9.08784 -41.116 493.975 0.395745 -0.490685 0.776282
8.87004 -41.3045 494.005 0.412239 -0.472074 0.779234
8.65596 -41.4563 494.019 0.310292 -0.517247 0.797605
8.44853 -41.5405 494.001 0.322414 -0.540725 0.77696
8.23693 -41.6728 494.005 0.352944 -0.520135 0.777747
8.02425 -41.8097 494.013 0.352364 -0.498438 0.792085
7.81246 -41.9426 494.018 0.32511 -0.478163 0.815882
7.59997 -42.0842 494.027 0.237402 -0.489441 0.8391
7.3912 -42.1874 494.018 0.1884 -0.5384 0.821359
7.18522 -42.2618 493.997 0.264793 -0.523985 0.809521
6.97377 -42.3949 494.002 0.187843 -0.488379 0.852175
6.76899 -42.4596 493.975 0.0865937 -0.529238 0.844043
6.56413 -42.5234 493.949 0.177941 -0.557535 0.810858
6.3546 -42.6394 493.946 0.211301 -0.52936 0.821663
6.14694 -42.7375 493.935 0.138839 -0.510358 0.848681
5.94128 -42.8134 493.913 0.140505 -0.548159 0.824488
5.73365 -42.9099 493.903 0.13472 -0.599938 0.788622
5.53054 -42.9586 493.869 0.103663 -0.597674 0.795009
5.324 -43.0462 493.853 0.102791 -0.589661 0.801083
5.1226 -43.0768 493.811 0.0509734 -0.549884 0.833684
4.91768 -43.1476 493.788 0.0463361 -0.532978 0.84486
4.71351 -43.2104 493.761 0.0748202 -0.521987 0.849665
4.50823 -43.2865 493.74 0.0395744 -0.526559 0.849217
4.30557 -43.3333 493.706 -0.0412714 -0.543188 0.838596
4.10299 -43.3804 493.671 -0.0684051 -0.529174 0.845751
3.90303 -43.3951 493.622 -0.00247032 -0.53013 0.847913
3.69841 -43.4667 493.599 -0.0452931 -0.524486 0.850214
3.49774 -43.4919 493.555 -0.144131 -0.536984 0.831188
3.29684 -43.52 493.512 -0.127835 -0.550651 0.824889
3.09582 -43.5498 493.469 -0.135246 -0.571913 0.809089
2.89634 -43.5614 493.419 -0.0907064 -0.606302 0.790044
2.69565 -43.5877 493.375 -0.054028 -0.599224 0.798756
2.49309 -43.6382 493.342 -0.111479 -0.590432 0.799351
2.29301 -43.6544 493.293 -0.165899 -0.593348 0.787664
2.09431 -43.662 493.241 -0.1918 -0.586368 0.78701
1.89509 -43.6678 493.187 -0.203227 -0.59497 0.777631
1.69678 -43.6657 493.13 -0.221022 -0.605037 0.764905
1.49918 -43.6546 493.069 -0.266105 -0.585135 0.766032
1.30251 -43.6275 493 -0.257491 -0.557001 0.789587
1.1042 -43.6298 492.945 -0.228293 -0.53964 0.810352
0.905206 -43.6351 492.892 -0.258774 -0.54335 0.798628
0.708552 -43.6075 492.822 -0.298517 -0.539495 0.787294
0.511799 -43.5925 492.76 -0.392956 -0.501768 0.770594
0.316562 -43.5458 492.681 -0.366035 -0.540944 0.757231
0.118713 -43.5325 492.619 -0.266742 -0.571875 0.775763
-0.0783841 -43.5206 492.558 -0.315498 -0.547769 0.774861
-0.276786 -43.5141 492.498 -0.354414 -0.570361 0.740998
-0.473014 -43.4826 492.427 -0.339736 -0.569557 0.748455
-0.669526 -43.4545 492.358 -0.327719 -0.555027 0.764556
-0.865738 -43.4219 492.287 -0.426146 -0.503642 0.751495
-1.05879 -43.3465 492.195 -0.518722 -0.492979 0.698497
-1.25269 -43.2814 492.108 -0.479455 -0.561618 0.674321
-1.44679 -43.2182 492.023 -0.410699 -0.582274 0.701629
-1.63974 -43.1384 491.929 -0.48391 -0.511266 0.710238
-1.83417 -43.0778 491.845 -0.539106 -0.501367 0.676753
-2.02853 -43.0152 491.758 -0.528444 -0.542848 0.652735
-2.22081 -42.9232 491.66 -0.602907 -0.486912 0.631997
-2.41061 -42.7963 491.546 -0.648894 -0.44865 0.614532
-2.60261 -42.6941 491.437 -0.550277 -0.496595 0.67126
-2.79818 -42.6463 491.361 -0.461113 -0.534816 0.708059
-2.99374 -42.5957 491.281 -0.460926 -0.536894 0.706606
-3.18891 -42.5389 491.198 -0.486652 -0.539225 0.687318
-3.3815 -42.4466 491.101 -0.594196 -0.510132 0.62185
-3.57302 -42.3341 490.992 -0.634584 -0.509339 0.581272
-3.76485 -42.2224 490.881 -0.651683 -0.488999 0.579819
-3.95441 -42.0779 490.756 -0.656547 -0.451127 0.604509
-4.14655 -41.9699 490.649 -0.637071 -0.459096 0.61917
-4.3373 -41.8395 490.532 -0.685963 -0.42373 0.591531
-4.5261 -41.6776 490.399 -0.747809 -0.394898 0.533701
-4.71343 -41.4895 490.253 -0.75727 -0.415305 0.504047
-4.9034 -41.3394 490.126 -0.731488 -0.46318 0.50039
-5.09383 -41.1982 490.005 -0.724313 -0.510407 0.463526
-5.28385 -41.0458 489.876 -0.745808 -0.505518 0.433846
-5.47205 -40.8623 489.733 -0.77045 -0.505927 0.387872
-5.66179 -40.7007 489.601 -0.764798 -0.528717 0.368161
-5.8531 -40.5613 489.479 -0.768219 -0.522865 0.369393
-6.0411 -40.3668 489.331 -0.774132 -0.492468 0.397738
-6.22684 -40.1328 489.164 -0.779047 -0.423206 0.462581
-6.41494 -39.9337 489.013 -0.845404 -0.30778 0.436536
-6.59406 -39.5845 488.792 -0.872852 -0.263488 0.410735
-6.779 -39.3259 488.614 -0.889667 -0.267097 0.37034
-6.95969 -38.9926 488.4 -0.89553 -0.285454 0.341383
-7.14184 -38.6783 488.195 -0.909557 -0.28429 0.303125
-7.31647 -38.2324 487.928 -0.931663 -0.245413 0.26791
-7.49596 -37.8618 487.696 -0.917147 -0.239361 0.318665
-7.68067 -37.5746 487.503 -0.930178 -0.276155 0.241882
-7.8561 -37.1228 487.233 -0.932923 -0.320544 0.164032
-8.039 -36.7932 487.02 -0.946676 -0.27701 0.164531
12.3606 -37.8487 493.544 0.608851 -0.345891 0.713905
12.1273 -38.1609 493.63 0.650014 -0.357618 0.670516
11.8974 -38.4422 493.702 0.653893 -0.36608 0.662124
11.6692 -38.71 493.769 0.6184 -0.344772 0.706197
11.4416 -38.9745 493.833 0.543764 -0.341073 0.766805
11.2203 -39.1793 493.871 0.483619 -0.366157 0.795011
10.9983 -39.3927 493.912 0.462842 -0.386283 0.797849
10.7791 -39.5806 493.942 0.473427 -0.409407 0.779906
10.5606 -39.7627 493.969 0.480125 -0.422583 0.768702
10.3421 -39.9469 493.997 0.463677 -0.437717 0.770329
10.1239 -40.1303 494.025 0.492077 -0.461513 0.73815
9.90293 -40.3423 494.066 0.515714 -0.484286 0.706757
9.68944 -40.4808 494.073 0.444427 -0.471707 0.761562
9.47302 -40.6505 494.094 0.373801 -0.462302 0.804083
9.25807 -40.8067 494.11 0.334498 -0.508074 0.793708
9.0458 -40.9368 494.113 0.381593 -0.491332 0.78293
8.83159 -41.0881 494.127 0.407369 -0.454169 0.792326
8.61722 -41.2425 494.141 0.307031 -0.454152 0.836348
8.40384 -41.387 494.152 0.294149 -0.512155 0.806954
8.19248 -41.5133 494.153 0.344435 -0.553007 0.758649
7.98183 -41.6286 494.152 0.330883 -0.526649 0.783044
7.77075 -41.7555 494.153 0.328569 -0.516716 0.790599
7.56089 -41.8728 494.15 0.291494 -0.50389 0.813097
7.34981 -41.9989 494.152 0.185482 -0.512556 0.838381
7.14352 -42.0762 494.131 0.199664 -0.548018 0.812288
6.93585 -42.169 494.118 0.238121 -0.537111 0.809204
6.72511 -42.2974 494.12 0.159703 -0.544564 0.823374
6.51798 -42.384 494.105 0.177304 -0.612263 0.770517
6.31339 -42.4468 494.078 0.205073 -0.619444 0.757782
6.1077 -42.5214 494.056 0.208811 -0.548724 0.809506
5.89631 -42.6583 494.063 0.188913 -0.511509 0.838255
5.69083 -42.7321 494.041 0.0902868 -0.527501 0.844744
5.48606 -42.8006 494.016 0.0824798 -0.57486 0.814084
5.28202 -42.8598 493.987 0.0389467 -0.606322 0.794265
5.07989 -42.8982 493.949 0.0436483 -0.595378 0.802259
4.87381 -42.9817 493.931 0.0658982 -0.603557 0.794592
4.67319 -43.0037 493.885 0.0994308 -0.586102 0.804113
4.46469 -43.1161 493.881 0.0671037 -0.5789 0.812633
4.26493 -43.1291 493.831 -0.050044 -0.591738 0.804576
4.06297 -43.1676 493.793 -0.046576 -0.558003 0.828531
3.85942 -43.2249 493.763 -0.0107919 -0.551724 0.833957
3.65683 -43.2716 493.729 -0.0334891 -0.54723 0.836312
3.45591 -43.3 493.686 -0.123934 -0.536868 0.834514
3.25605 -43.3135 493.636 -0.0983097 -0.554734 0.826199
3.05401 -43.3556 493.599 -0.0829717 -0.572648 0.815592
2.8522 -43.3945 493.561 -0.0961249 -0.60299 0.791937
2.65182 -43.4214 493.518 -0.0742551 -0.599837 0.796669
2.45115 -43.4406 493.47 -0.118738 -0.567278 0.814921
2.25219 -43.4474 493.417 -0.187868 -0.543596 0.818052
2.05314 -43.4534 493.364 -0.191686 -0.533913 0.823525
1.85334 -43.4692 493.315 -0.203564 -0.528996 0.823848
1.65439 -43.4748 493.262 -0.260264 -0.532349 0.805523
1.45743 -43.4546 493.196 -0.308308 -0.546833 0.778409
1.25994 -43.4381 493.132 -0.278634 -0.567141 0.775057
1.06251 -43.4298 493.072 -0.217727 -0.572803 0.790248
0.863279 -43.4352 493.019 -0.260089 -0.564622 0.783298
0.6659 -43.4198 492.955 -0.341054 -0.558319 0.756282
0.471192 -43.3701 492.876 -0.339547 -0.570897 0.747519
0.272269 -43.3739 492.822 -0.329549 -0.559712 0.760342
0.0767799 -43.3332 492.746 -0.300462 -0.549532 0.779575
-0.121708 -43.3311 492.689 -0.278967 -0.577539 0.76722
-0.318009 -43.3002 492.619 -0.358988 -0.545296 0.757483
-0.512502 -43.2449 492.537 -0.363328 -0.519429 0.773425
-0.710331 -43.2332 492.475 -0.387185 -0.541842 0.745986
-0.903074 -43.1534 492.382 -0.424713 -0.517326 0.742962
-1.10166 -43.1509 492.324 -0.445669 -0.523734 0.726004
-1.29522 -43.0806 492.235 -0.463854 -0.604222 0.647885
-1.49124 -43.0424 492.16 -0.486815 -0.560726 0.669774
-1.68427 -42.9631 492.068 -0.485025 -0.538502 0.689033
-1.88029 -42.924 491.994 -0.49336 -0.574219 0.653352
-2.07161 -42.8186 491.888 -0.572647 -0.531329 0.624312
-2.26311 -42.7145 491.783 -0.631442 -0.497792 0.594546
-2.4528 -42.5851 491.668 -0.628839 -0.496085 0.598715
-2.64596 -42.5 491.57 -0.524271 -0.518817 0.675255
-2.84041 -42.4334 491.482 -0.45903 -0.500349 0.734127
-3.03499 -42.368 491.396 -0.454043 -0.522697 0.721549
-3.23071 -42.3178 491.316 -0.495586 -0.518584 0.696753
-3.42489 -42.2446 491.225 -0.58123 -0.488155 0.651057
-3.61695 -42.1404 491.121 -0.647224 -0.477368 0.594324
-3.80635 -41.9932 490.995 -0.68177 -0.446512 0.579497
-3.99664 -41.8584 490.875 -0.655781 -0.469095 0.591524
-4.18934 -41.7543 490.767 -0.659473 -0.46323 0.592041
-4.37813 -41.5965 490.639 -0.696779 -0.442163 0.564792
-4.56979 -41.4764 490.526 -0.737688 -0.474104 0.480668
-4.75821 -41.3051 490.39 -0.736144 -0.517227 0.436541
-4.9498 -41.1802 490.274 -0.696512 -0.553295 0.456876
-5.14046 -41.0388 490.152 -0.718949 -0.539046 0.438797
-5.32965 -40.8725 490.017 -0.732518 -0.512198 0.448409
-5.5215 -40.7454 489.901 -0.75362 -0.476672 0.452594
-5.7083 -40.538 489.747 -0.765667 -0.450568 0.459067
-5.89572 -40.3344 489.594 -0.779408 -0.391347 0.489255
-6.08174 -40.1066 489.431 -0.79787 -0.325044 0.50769
-6.26982 -39.9087 489.281 -0.814041 -0.296773 0.499262
-6.4521 -39.6133 489.085 -0.847418 -0.246633 0.470166
-6.63693 -39.3551 488.907 -0.853976 -0.228036 0.467681
-6.81996 -39.0632 488.713 -0.865229 -0.22611 0.447496
-7.00105 -38.7342 488.501 -0.887797 -0.271314 0.371761
-7.18523 -38.4522 488.311 -0.920654 -0.309391 0.238062
-7.36281 -38.0538 488.067 -0.939571 -0.269231 0.211474
-7.5375 -37.6 487.796 -0.904817 -0.282273 0.318791
-7.72507 -37.3597 487.626 -0.910712 -0.282192 0.301614
-7.90275 -36.9446 487.373 -0.939762 -0.275468 0.202399
-8.07717 -36.4657 487.09 -0.946462 -0.252419 0.201231
12.319 -37.6676 493.683 0.687939 -0.404095 0.602866
12.0878 -37.9595 493.76 0.671454 -0.372716 0.640494
11.8598 -38.2221 493.824 0.605515 -0.355578 0.71198
11.6351 -38.456 493.874 0.564869 -0.328745 0.756868
11.4094 -38.7015 493.93 0.537054 -0.334366 0.77445
11.1844 -38.942 493.984 0.500624 -0.371826 0.781742
10.9645 -39.1344 494.015 0.499515 -0.394648 0.771192
10.741 -39.3643 494.064 0.501859 -0.423629 0.754106
10.521 -39.5605 494.097 0.52831 -0.477825 0.701835
10.2993 -39.7766 494.14 0.542149 -0.489956 0.682654
10.0793 -39.9778 494.176 0.52319 -0.451609 0.722719
9.85964 -40.1765 494.211 0.441751 -0.456864 0.772096
9.6462 -40.3143 494.217 0.412826 -0.493473 0.765545
9.42882 -40.4929 494.243 0.43569 -0.500296 0.74825
9.21543 -40.6337 494.251 0.332923 -0.502839 0.797694
9.00551 -40.7393 494.243 0.352684 -0.499707 0.791143
8.78968 -40.907 494.264 0.396636 -0.504661 0.76681
8.5782 -41.0312 494.265 0.390069 -0.481493 0.784864
8.36119 -41.2141 494.293 0.347207 -0.479219 0.806099
8.15175 -41.3225 494.285 0.287031 -0.525251 0.801078
7.94059 -41.4438 494.286 0.31691 -0.526412 0.78896
7.72879 -41.5804 494.291 0.296265 -0.517972 0.802454
7.51923 -41.6858 494.285 0.276331 -0.527504 0.803356
7.30948 -41.7955 494.28 0.244706 -0.527322 0.813665
7.1001 -41.914 494.275 0.192925 -0.535066 0.822486
6.89247 -42.0065 494.261 0.230925 -0.558499 0.796713
6.68487 -42.0933 494.247 0.247961 -0.531938 0.809665
6.47419 -42.219 494.25 0.160867 -0.534476 0.829733
6.26874 -42.2914 494.226 0.0878724 -0.577899 0.811364
6.06465 -42.3506 494.196 0.165251 -0.581039 0.796923
5.85993 -42.4125 494.17 0.196715 -0.543498 0.816035
5.6518 -42.5153 494.161 0.149028 -0.520939 0.840484
5.44413 -42.6139 494.15 0.0959794 -0.532172 0.841178
5.23951 -42.6791 494.124 0.00519544 -0.552898 0.833233
5.03708 -42.7203 494.087 0.0500743 -0.568416 0.821216
4.83174 -42.795 494.065 0.0456594 -0.590057 0.806069
4.62892 -42.8416 494.031 0.0932215 -0.616945 0.781466
4.42355 -42.9179 494.01 0.0566043 -0.570942 0.819037
4.2214 -42.9585 493.972 -0.114185 -0.527617 0.841773
4.0214 -42.9724 493.923 -0.0427816 -0.576755 0.815796
3.81884 -43.0184 493.888 -0.0141591 -0.572729 0.819623
3.61752 -43.0497 493.846 -0.061407 -0.545417 0.835912
3.41532 -43.0915 493.809 -0.0970592 -0.534796 0.839388
3.21366 -43.1274 493.77 -0.0764781 -0.538478 0.839162
3.01123 -43.1726 493.735 -0.0388823 -0.585081 0.810042
2.81009 -43.2031 493.693 -0.0965928 -0.606001 0.789578
2.6113 -43.2094 493.639 -0.127502 -0.592624 0.795324
2.40984 -43.2366 493.596 -0.153986 -0.581622 0.798751
2.21103 -43.2425 493.542 -0.194366 -0.577489 0.792924
2.0124 -43.2483 493.489 -0.187961 -0.587222 0.7873
1.81329 -43.2492 493.433 -0.189323 -0.583864 0.789468
1.61415 -43.2548 493.38 -0.233203 -0.572058 0.786363
1.41609 -43.2548 493.324 -0.278214 -0.576984 0.767911
1.218 -43.2409 493.261 -0.268915 -0.579555 0.769286
1.01993 -43.2371 493.203 -0.227734 -0.58187 0.780746
0.821095 -43.238 493.147 -0.264666 -0.570336 0.777605
0.62464 -43.2098 493.078 -0.324769 -0.559532 0.762528
0.425967 -43.2108 493.022 -0.355902 -0.557967 0.749671
0.233249 -43.1333 492.93 -0.347012 -0.529458 0.774117
0.0343284 -43.1369 492.875 -0.266561 -0.534489 0.802039
-0.164801 -43.1421 492.822 -0.320195 -0.558414 0.765277
-0.358954 -43.0822 492.738 -0.392918 -0.521354 0.757499
-0.556874 -43.0712 492.676 -0.331712 -0.527995 0.781785
-0.754272 -43.0533 492.612 -0.412761 -0.561775 0.716964
-0.947774 -42.9827 492.523 -0.408463 -0.603778 0.684551
-1.14463 -42.9565 492.454 -0.329441 -0.622703 0.709725
-1.343 -42.9504 492.396 -0.512402 -0.521001 0.682644
-1.52904 -42.7758 492.257 -0.511583 -0.477018 0.714658
-1.72809 -42.7777 492.202 -0.44104 -0.507996 0.739881
-1.92029 -42.6849 492.102 -0.522867 -0.480192 0.704291
-2.11448 -42.6183 492.015 -0.588671 -0.470465 0.657365
-2.30532 -42.504 491.905 -0.633708 -0.496008 0.593625
-2.4969 -42.3979 491.799 -0.630709 -0.503915 0.590149
-2.68699 -42.2705 491.684 -0.554549 -0.509101 0.658249
-2.88191 -42.2073 491.598 -0.432162 -0.521609 0.735635
-3.08052 -42.2033 491.54 -0.45086 -0.565898 0.690278
-3.27288 -42.1016 491.436 -0.512654 -0.580318 0.632784
-3.4676 -42.035 491.348 -0.576061 -0.509019 0.639573
-3.65817 -41.9068 491.232 -0.663924 -0.447215 0.599336
-3.84882 -41.777 491.114 -0.671232 -0.474208 0.569714
-4.04114 -41.672 491.009 -0.663487 -0.507553 0.549704
-4.23026 -41.5163 490.879 -0.671757 -0.498587 0.547863
-4.42326 -41.4181 490.777 -0.655469 -0.51279 0.554443
-4.61547 -41.3048 490.668 -0.702377 -0.522384 0.483509
-4.80448 -41.1417 490.535 -0.722369 -0.50113 0.476499
-4.99438 -40.9921 490.409 -0.696771 -0.483089 0.530222
-5.18489 -40.8455 490.283 -0.729141 -0.433698 0.529396
-5.37297 -40.6638 490.143 -0.743259 -0.408658 0.529684
-5.5607 -40.4657 489.991 -0.753108 -0.363834 0.548136
-5.74904 -40.2827 489.85 -0.776882 -0.305592 0.550515
-5.93574 -40.0653 489.69 -0.801902 -0.301734 0.515664
-6.12146 -39.8309 489.523 -0.810942 -0.311612 0.495249
-6.30683 -39.5871 489.352 -0.835191 -0.274617 0.476489
-6.48997 -39.3033 489.162 -0.862074 -0.259078 0.435554
-6.67178 -38.9933 488.96 -0.85751 -0.24105 0.454501
-6.85482 -38.6988 488.765 -0.837089 -0.249987 0.48661
-7.04698 -38.5516 488.638 -0.863384 -0.338846 0.373832
-7.22911 -38.2334 488.432 -0.926482 -0.338941 0.163552
-7.4005 -37.7284 488.137 -0.944449 -0.278589 0.174367
-7.58005 -37.3544 487.904 -0.904702 -0.292596 0.30968
-7.76585 -37.0819 487.719 -0.904929 -0.314115 0.287116
-7.94477 -36.6857 487.476 -0.941987 -0.249608 0.224403
-8.12146 -36.2441 487.21 -0.943353 -0.217334 0.250703
12.2721 -37.5368 493.846 0.661677 -0.420509 0.620771
12.045 -37.7898 493.905 0.659023 -0.426015 0.619839
11.8196 -38.0273 493.957 0.611245 -0.424112 0.668213
11.5953 -38.2565 494.005 0.614178 -0.398648 0.681077
11.3649 -38.5478 494.081 0.609751 -0.39861 0.685065
11.1426 -38.7618 494.123 0.556856 -0.414184 0.719975
10.9179 -39.0016 494.176 0.550265 -0.420014 0.721662
10.6966 -39.2091 494.214 0.592161 -0.452238 0.666952
10.4701 -39.4709 494.278 0.570067 -0.506654 0.646781
10.2566 -39.6046 494.283 0.490218 -0.495575 0.717002
10.0403 -39.7686 494.301 0.472094 -0.43306 0.767845
9.82222 -39.9512 494.328 0.447475 -0.426841 0.785858
9.60232 -40.1518 494.365 0.399081 -0.441806 0.803456
9.38924 -40.2806 494.369 0.358168 -0.452618 0.81661
9.17616 -40.4264 494.377 0.321828 -0.476623 0.818081
8.96199 -40.5748 494.389 0.390266 -0.514909 0.763257
8.74663 -40.7375 494.407 0.393208 -0.55124 0.735882
8.53656 -40.8466 494.401 0.399332 -0.532052 0.746629
8.32118 -41.0122 494.421 0.390422 -0.499257 0.773507
8.10856 -41.1505 494.428 0.293866 -0.511065 0.807747
7.89769 -41.2689 494.427 0.302523 -0.536293 0.787952
7.68876 -41.3742 494.418 0.305039 -0.526415 0.793624
7.47591 -41.5156 494.427 0.263039 -0.527214 0.807995
7.26858 -41.6043 494.411 0.250694 -0.554249 0.7937
7.05974 -41.7138 494.403 0.243597 -0.544685 0.802483
6.85022 -41.8147 494.398 0.186663 -0.527866 0.828561
6.64276 -41.9043 494.383 0.214916 -0.521723 0.8256
6.43498 -42.0058 494.371 0.183924 -0.508821 0.840995
6.22831 -42.0896 494.353 0.0941591 -0.525844 0.845353
6.02222 -42.1679 494.333 0.125876 -0.583976 0.801952
5.81423 -42.2656 494.323 0.17759 -0.602355 0.778223
5.60909 -42.3372 494.299 0.175226 -0.576456 0.798119
5.40385 -42.4083 494.275 0.105909 -0.539667 0.83519
5.19947 -42.4703 494.248 0.0298263 -0.534707 0.844511
4.99506 -42.5334 494.221 0.081145 -0.574123 0.814738
4.78889 -42.617 494.203 0.0844916 -0.56324 0.821962
4.58447 -42.6814 494.177 -0.0102057 -0.539552 0.841891
4.38506 -42.6889 494.124 -0.0508876 -0.524532 0.849868
4.18293 -42.7278 494.086 -0.0410348 -0.516562 0.855266
3.97722 -42.8086 494.067 -0.0450033 -0.570992 0.819721
3.77725 -42.8234 494.018 -0.0497297 -0.607752 0.792568
3.57434 -42.8729 493.984 -0.0657891 -0.597036 0.799513
3.3749 -42.8812 493.932 -0.0800805 -0.566412 0.820222
3.1728 -42.9218 493.895 -0.0105357 -0.528273 0.849009
2.96775 -42.9978 493.874 -0.0399523 -0.520693 0.852809
2.76724 -43.02 493.828 -0.136162 -0.538932 0.831271
2.56653 -43.0449 493.783 -0.152152 -0.56404 0.811609
2.36746 -43.051 493.73 -0.166449 -0.563503 0.809172
2.16722 -43.0638 493.68 -0.187445 -0.547111 0.815803
1.96808 -43.0757 493.629 -0.201725 -0.543189 0.815017
1.76899 -43.0814 493.576 -0.21479 -0.543049 0.811765
1.5703 -43.0817 493.519 -0.230957 -0.547239 0.80448
1.37236 -43.0729 493.459 -0.278786 -0.552005 0.785856
1.17569 -43.0478 493.391 -0.268877 -0.55956 0.783963
0.976768 -43.0509 493.337 -0.250154 -0.542956 0.801637
0.779677 -43.0307 493.271 -0.283703 -0.523813 0.803201
0.581079 -43.0294 493.214 -0.325792 -0.549827 0.769123
0.387349 -42.9656 493.129 -0.391689 -0.564955 0.726227
0.190001 -42.9481 493.063 -0.337609 -0.577852 0.743039
-0.00766241 -42.9327 493.001 -0.223834 -0.586806 0.778176
-0.20601 -42.935 492.946 -0.364285 -0.546558 0.754036
-0.399443 -42.8577 492.853 -0.387959 -0.53748 0.748734
-0.598187 -42.8528 492.795 -0.276847 -0.548174 0.789216
-0.795518 -42.841 492.733 -0.364372 -0.511394 0.778273
-0.992638 -42.814 492.664 -0.399803 -0.531082 0.747067
-1.18844 -42.7728 492.589 -0.440136 -0.536229 0.720235
-1.37737 -42.6379 492.47 -0.557991 -0.45228 0.695765
-1.5737 -42.6022 492.397 -0.487141 -0.528602 0.695178
-1.76893 -42.5509 492.317 -0.46181 -0.547648 0.697719
-1.96143 -42.461 492.219 -0.519678 -0.472569 0.711768
-2.15677 -42.4095 492.138 -0.549648 -0.512073 0.660052
-2.34835 -42.3051 492.034 -0.627623 -0.508712 0.589323
-2.5394 -42.189 491.921 -0.643024 -0.492351 0.58661
-2.7302 -42.0712 491.811 -0.561156 -0.512367 0.650064
-2.92626 -42.0261 491.734 -0.370438 -0.569388 0.733875
-3.1237 -41.9997 491.665 -0.419213 -0.570199 0.706493
-3.31912 -41.9437 491.583 -0.577108 -0.531858 0.619737
-3.50837 -41.7964 491.457 -0.619052 -0.515752 0.592263
-3.70166 -41.7073 491.36 -0.638962 -0.488554 0.594174
-3.89314 -41.5904 491.249 -0.643553 -0.503292 0.57666
-4.08479 -41.4726 491.137 -0.668841 -0.500469 0.549711
-4.27559 -41.3409 491.019 -0.664222 -0.504393 0.551722
-4.46731 -41.2232 490.908 -0.626829 -0.531169 0.57004
-4.65957 -41.1091 490.798 -0.707606 -0.445944 0.548113
-4.84642 -40.9116 490.649 -0.734375 -0.397721 0.550011
-5.0367 -40.7641 490.523 -0.717323 -0.393328 0.575101
-5.22496 -40.5827 490.381 -0.735369 -0.373929 0.565163
-5.41425 -40.4199 490.251 -0.766584 -0.356081 0.534373
-5.60161 -40.2129 490.094 -0.789881 -0.34467 0.507238
-5.78732 -39.9852 489.932 -0.784626 -0.346155 0.514334
-5.97659 -39.8087 489.792 -0.803547 -0.345893 0.484427
-6.16284 -39.5811 489.629 -0.838154 -0.342957 0.424121
-6.34711 -39.3176 489.448 -0.852554 -0.328193 0.406743
-6.53281 -39.0737 489.277 -0.882011 -0.29206 0.369808
-6.7115 -38.7105 489.05 -0.870646 -0.28829 0.398579
-6.90088 -38.5259 488.909 -0.79549 -0.382488 0.469998
-7.09086 -38.3341 488.759 -0.825678 -0.411376 0.386039
-7.27776 -38.0947 488.59 -0.937344 -0.315788 0.147186
-7.44521 -37.521 488.264 -0.949091 -0.289636 0.123845
-7.62501 -37.1496 488.032 -0.900204 -0.330842 0.283154
-7.81149 -36.8872 487.852 -0.914253 -0.288568 0.284376
-7.98542 -36.4025 487.567 -0.947674 -0.226192 0.225279
-8.15757 -35.8783 487.263 -0.938663 -0.231232 0.25582
12.2288 -37.3718 493.993 0.586494 -0.322955 0.742781
11.9996 -37.6441 494.06 0.615717 -0.412809 0.671179
11.7757 -37.8681 494.106 0.60573 -0.44769 0.657772
11.5507 -38.1041 494.157 0.638601 -0.434439 0.635178
11.3256 -38.3433 494.21 0.609501 -0.418056 0.6736
11.1024 -38.5653 494.255 0.549228 -0.401363 0.732977
10.8802 -38.7801 494.296 0.564275 -0.365899 0.740076
10.6501 -39.0751 494.375 0.566478 -0.37059 0.736048
10.4309 -39.2645 494.405 0.434515 -0.405795 0.804069
10.2167 -39.4048 494.412 0.368961 -0.443548 0.816782
9.99907 -39.5814 494.437 0.477735 -0.468772 0.742982
9.77936 -39.7805 494.471 0.464277 -0.458173 0.757974
9.56648 -39.9119 494.475 0.405714 -0.459072 0.790347
9.34914 -40.0921 494.501 0.387594 -0.475779 0.78956
9.13463 -40.2494 494.514 0.398743 -0.473947 0.785097
8.91728 -40.4224 494.54 0.417872 -0.487902 0.766377
8.70338 -40.5697 494.551 0.34843 -0.511684 0.785351
8.49157 -40.6922 494.552 0.346585 -0.521588 0.779631
8.27872 -40.8267 494.559 0.366579 -0.507768 0.77961
8.06776 -40.9516 494.559 0.316934 -0.490075 0.812022
7.85517 -41.0951 494.567 0.272828 -0.505432 0.818598
7.64597 -41.1994 494.558 0.288625 -0.527676 0.798908
7.43522 -41.321 494.558 0.292622 -0.526607 0.798158
7.22429 -41.4458 494.559 0.228512 -0.541568 0.809003
7.01693 -41.5333 494.543 0.210255 -0.565558 0.797457
6.80998 -41.6115 494.525 0.191248 -0.533121 0.82414
6.6017 -41.7163 494.515 0.178681 -0.506411 0.843577
6.39471 -41.8025 494.498 0.184415 -0.518482 0.834966
6.18574 -41.9111 494.492 0.181366 -0.526832 0.830394
5.97762 -42.0113 494.482 0.148203 -0.539892 0.828585
5.77338 -42.0695 494.452 0.12474 -0.567634 0.813776
5.5676 -42.1453 494.431 0.0902429 -0.550766 0.829767
5.36316 -42.207 494.403 0.0844628 -0.550914 0.830277
5.1572 -42.2863 494.383 0.114148 -0.576421 0.809141
4.9508 -42.3722 494.367 0.0666796 -0.573633 0.816394
4.75022 -42.3902 494.319 0.0195841 -0.537708 0.842903
4.54658 -42.4459 494.288 -0.0476061 -0.510645 0.858473
4.34404 -42.4885 494.252 -0.0478512 -0.564494 0.824049
4.13952 -42.5545 494.226 0.0633065 -0.596 0.800485
3.93609 -42.6085 494.195 0.00358732 -0.567501 0.823365
3.73316 -42.6572 494.161 -0.0848695 -0.549055 0.831466
3.53321 -42.6711 494.111 -0.126853 -0.536103 0.834567
3.33267 -42.6923 494.065 -0.115826 -0.58744 0.800936
3.13218 -42.713 494.018 0.00311182 -0.613801 0.789455
2.92955 -42.7594 493.984 -0.0238604 -0.532395 0.84616
2.72747 -42.7997 493.946 -0.119817 -0.475996 0.871247
2.52664 -42.8254 493.902 -0.172582 -0.479541 0.860381
2.32751 -42.8316 493.849 -0.198395 -0.52283 0.829028
2.12813 -42.8374 493.795 -0.193572 -0.54773 0.813954
1.93032 -42.8378 493.739 -0.203568 -0.537628 0.81824
1.72994 -42.8434 493.685 -0.211996 -0.529528 0.821376
1.53114 -42.8491 493.632 -0.229439 -0.52075 0.8223
1.33221 -42.8545 493.578 -0.272565 -0.526989 0.804979
1.13407 -42.8443 493.517 -0.292586 -0.546093 0.784969
0.937534 -42.8164 493.448 -0.275669 -0.544177 0.792387
0.738696 -42.8174 493.392 -0.244074 -0.547605 0.800348
0.5393 -42.8229 493.339 -0.299532 -0.55545 0.775729
0.342204 -42.8147 493.279 -0.378978 -0.581978 0.719498
0.14702 -42.7576 493.196 -0.324575 -0.607995 0.724564
-0.051689 -42.749 493.136 -0.271865 -0.600603 0.751907
-0.24721 -42.721 493.067 -0.371659 -0.573125 0.73034
-0.443866 -42.6846 492.993 -0.378515 -0.564155 0.733796
-0.640687 -42.6575 492.925 -0.322002 -0.550923 0.769934
-0.836176 -42.6124 492.847 -0.335198 -0.52013 0.785561
-1.03397 -42.5975 492.784 -0.38911 -0.516973 0.762451
-1.22769 -42.5273 492.695 -0.520141 -0.47732 0.708251
-1.42262 -42.4726 492.614 -0.4868 -0.495898 0.719104
-1.61904 -42.4376 492.541 -0.469027 -0.533045 0.704186
-1.80948 -42.3196 492.43 -0.53962 -0.509742 0.670055
-2.00389 -42.2551 492.344 -0.467113 -0.529238 0.708317
-2.2007 -42.2231 492.272 -0.531169 -0.538958 0.653746
-2.39038 -42.094 492.161 -0.639159 -0.504811 0.580207
-2.58198 -41.9836 492.049 -0.644366 -0.495801 0.582215
-2.77268 -41.8618 491.935 -0.529968 -0.563626 0.633609
-2.97003 -41.8338 491.865 -0.3609 -0.595722 0.717542
-3.1671 -41.8013 491.794 -0.432494 -0.570856 0.697906
-3.36043 -41.714 491.697 -0.582173 -0.524884 0.620944
-3.55367 -41.6252 491.6 -0.639453 -0.494381 0.588802
-3.74382 -41.4869 491.478 -0.622513 -0.48913 0.610924
-3.93654 -41.3902 491.379 -0.635453 -0.475717 0.608188
-4.12754 -41.2599 491.26 -0.663688 -0.465491 0.585522
-4.31885 -41.1343 491.144 -0.645681 -0.452645 0.614987
-4.51115 -41.0266 491.039 -0.672999 -0.422285 0.607246
-4.69767 -40.8287 490.892 -0.727828 -0.369011 0.578012
-4.88854 -40.6837 490.764 -0.735117 -0.360309 0.574265
-5.07663 -40.5009 490.622 -0.726104 -0.376769 0.575167
-5.26808 -40.3636 490.499 -0.739958 -0.365527 0.564669
-5.45458 -40.1575 490.349 -0.768407 -0.354198 0.533005
-5.64336 -39.9754 490.206 -0.794337 -0.363206 0.486939
-5.83101 -39.7747 490.055 -0.789371 -0.398102 0.467341
-6.0198 -39.5893 489.912 -0.803679 -0.401188 0.439487
-6.20545 -39.3504 489.743 -0.845548 -0.360089 0.394187
-6.3903 -39.0947 489.567 -0.867039 -0.346846 0.357689
-6.5715 -38.7754 489.36 -0.885724 -0.286296 0.365415
-6.75458 -38.4753 489.16 -0.840695 -0.29255 0.455683
-6.94437 -38.2959 489.022 -0.759921 -0.390983 0.51928
-7.13528 -38.1251 488.885 -0.81039 -0.410215 0.41832
-7.32179 -37.8775 488.711 -0.939768 -0.283981 0.190237
-7.4877 -37.2753 488.372 -0.953893 -0.251532 0.163768
-7.66858 -36.9201 488.148 -0.908144 -0.292076 0.299944
-7.84848 -36.5423 487.914 -0.920169 -0.245982 0.3046
-8.02762 -36.145 487.67 -0.949361 -0.232737 0.211064
-8.20387 -35.6905 487.399 -0.940055 -0.258407 0.222537
12.1876 -37.1864 494.13 0.66682 -0.3151 0.675325
11.9586 -37.457 494.197 0.623267 -0.390225 0.67769
11.7305 -37.7209 494.261 0.605532 -0.433521 0.667376
11.5072 -37.9406 494.304 0.611711 -0.445526 0.653695
11.2817 -38.1839 494.359 0.580402 -0.449228 0.679211
11.0627 -38.3643 494.385 0.558426 -0.453468 0.694642
10.8389 -38.5945 494.433 0.610737 -0.417734 0.67268
10.6156 -38.8218 494.48 0.555112 -0.38749 0.736004
10.395 -39.025 494.517 0.426471 -0.374704 0.823237
10.1736 -39.2369 494.557 0.425798 -0.405493 0.80887
9.95504 -39.4225 494.585 0.449973 -0.457176 0.767147
9.7414 -39.5599 494.592 0.44058 -0.464851 0.767986
9.52049 -39.7725 494.632 0.434918 -0.486488 0.757744
9.30752 -39.9045 494.637 0.414749 -0.513501 0.751199
9.09362 -40.0503 494.647 0.415642 -0.46052 0.784323
8.87669 -40.2271 494.671 0.382527 -0.442817 0.810917
8.66453 -40.356 494.674 0.333124 -0.46845 0.81828
8.44998 -40.5111 494.689 0.315015 -0.483142 0.816909
8.23968 -40.6232 494.684 0.310965 -0.491907 0.813221
8.02647 -40.7693 494.693 0.313358 -0.48179 0.818343
7.81607 -40.8823 494.69 0.292358 -0.479243 0.827559
7.603 -41.027 494.7 0.278537 -0.50959 0.814086
7.39398 -41.1293 494.691 0.288567 -0.531272 0.796542
7.18318 -41.2505 494.691 0.241434 -0.52092 0.81875
6.97545 -41.3506 494.677 0.14996 -0.549642 0.82183
6.76942 -41.4176 494.654 0.16748 -0.570028 0.804374
6.56207 -41.5062 494.638 0.209163 -0.530919 0.821204
6.35212 -41.6241 494.636 0.197763 -0.524759 0.82796
6.14619 -41.6989 494.614 0.185212 -0.521172 0.833112
5.93862 -41.7926 494.601 0.163957 -0.510293 0.844227
5.72961 -41.903 494.596 0.0916524 -0.568245 0.817739
5.52792 -41.9329 494.553 0.100104 -0.577064 0.810541
5.31904 -42.0438 494.548 0.119715 -0.533144 0.837512
5.11472 -42.1042 494.52 0.0857393 -0.550268 0.830575
4.91138 -42.1542 494.486 -0.00371884 -0.549719 0.835341
4.70861 -42.1981 494.45 -0.0294155 -0.543015 0.839207
4.5045 -42.2578 494.422 0.0329831 -0.530391 0.847111
4.29885 -42.3358 494.402 0.01462 -0.552346 0.833487
4.09775 -42.3618 494.357 0.00254949 -0.57855 0.815643
3.89478 -42.4099 494.323 -0.0454638 -0.543128 0.838418
3.69491 -42.4222 494.273 -0.110082 -0.541139 0.833697
3.49338 -42.454 494.231 -0.0513677 -0.550321 0.833372
3.28712 -42.543 494.216 -0.0678815 -0.563285 0.82347
3.08766 -42.5502 494.163 -0.1172 -0.618345 0.777119
2.8882 -42.5583 494.111 -0.0914816 -0.629011 0.771995
2.68867 -42.5649 494.058 -0.0899755 -0.587262 0.80438
2.48674 -42.6054 494.02 -0.0929639 -0.56304 0.821185
2.28443 -42.6494 493.984 -0.154669 -0.565361 0.810213
2.0851 -42.6554 493.931 -0.201365 -0.580987 0.788611
1.88631 -42.661 493.878 -0.206902 -0.579143 0.788534
1.68661 -42.6627 493.822 -0.215376 -0.577488 0.787478
1.48896 -42.6558 493.763 -0.2078 -0.593725 0.777373
1.28956 -42.6613 493.709 -0.232097 -0.61065 0.757124
1.09178 -42.646 493.646 -0.288066 -0.597489 0.748347
0.894153 -42.6365 493.585 -0.264416 -0.586546 0.765538
0.695206 -42.6332 493.527 -0.226242 -0.585104 0.77876
0.497431 -42.6251 493.467 -0.258235 -0.556369 0.78979
0.299859 -42.6064 493.402 -0.357026 -0.517792 0.777447
0.103626 -42.57 493.329 -0.344658 -0.537802 0.769402
-0.0942287 -42.5623 493.27 -0.307056 -0.56694 0.764392
-0.290846 -42.5301 493.198 -0.384921 -0.542091 0.746976
-0.485664 -42.4763 493.117 -0.400891 -0.537308 0.742015
-0.681029 -42.427 493.038 -0.360415 -0.559709 0.746208
-0.879205 -42.4211 492.979 -0.334567 -0.5319 0.777912
-1.07583 -42.3876 492.907 -0.422308 -0.478186 0.770061
-1.26971 -42.3186 492.819 -0.504627 -0.485307 0.714023
-1.46226 -42.2306 492.722 -0.445417 -0.509565 0.736171
-1.65871 -42.1948 492.649 -0.48243 -0.475201 0.73583
-1.85291 -42.1274 492.561 -0.530754 -0.501623 0.683136
-2.04746 -42.064 492.475 -0.440992 -0.560287 0.701146
-2.24299 -42.0134 492.395 -0.538863 -0.528146 0.656268
-2.43406 -41.899 492.286 -0.646017 -0.498922 0.577701
-2.62487 -41.78 492.174 -0.609481 -0.552413 0.568658
-2.81986 -41.7185 492.089 -0.519473 -0.609993 0.598378
-3.01305 -41.6282 491.991 -0.382838 -0.601613 0.701069
-3.2119 -41.6247 491.933 -0.457164 -0.53302 0.711963
-3.40427 -41.5205 491.828 -0.596161 -0.488554 0.637108
-3.59535 -41.3986 491.715 -0.645369 -0.453077 0.614996
-3.78606 -41.2684 491.597 -0.627124 -0.43689 0.644858
-3.97954 -41.1781 491.499 -0.632446 -0.432512 0.642608
-4.16927 -41.0302 491.373 -0.67283 -0.409717 0.615981
-4.36062 -40.9008 491.254 -0.660802 -0.400072 0.635045
-4.54974 -40.7434 491.127 -0.70037 -0.374697 0.607522
-4.74035 -40.6021 491.004 -0.734233 -0.37363 0.566837
-4.92841 -40.4194 490.861 -0.72816 -0.384156 0.567633
-5.11942 -40.2812 490.741 -0.730025 -0.368025 0.575866
-5.30635 -40.0765 490.589 -0.73788 -0.350965 0.576504
-5.4971 -39.9328 490.467 -0.752359 -0.353996 0.555555
-5.68563 -39.7433 490.32 -0.773418 -0.382806 0.505256
-5.87456 -39.5616 490.178 -0.787163 -0.441935 0.430196
-6.06239 -39.3593 490.027 -0.817397 -0.415009 0.399536
-6.24817 -39.1209 489.858 -0.845504 -0.363342 0.391287
-6.43339 -38.8694 489.684 -0.8866 -0.313126 0.34043
-6.61114 -38.4918 489.45 -0.894885 -0.294469 0.335364
-6.79565 -38.2199 489.266 -0.821707 -0.38729 0.418097
-6.98716 -38.0787 489.149 -0.731609 -0.44783 0.514001
-7.18041 -37.9277 489.015 -0.817352 -0.367454 0.44375
-7.36268 -37.6065 488.808 -0.942406 -0.262397 0.207411
-7.53225 -37.0639 488.496 -0.954786 -0.234719 0.182459
-7.70857 -36.6286 488.235 -0.921302 -0.282057 0.267669
-7.89246 -36.3173 488.032 -0.921976 -0.288642 0.258159
-8.07188 -35.9228 487.79 -0.947362 -0.253637 0.195378
-8.24234 -35.3641 487.47 -0.94856 -0.253043 0.190272
12.1457 -37.0071 494.271 0.757398 -0.388508 0.524795
11.9147 -37.2971 494.346 0.6581 -0.400325 0.637687
11.6873 -37.5538 494.407 0.606918 -0.415083 0.677759
11.4631 -37.7826 494.454 0.577661 -0.422437 0.698466
11.2399 -38.0033 494.498 0.560233 -0.434819 0.705033
11.0162 -38.2302 494.545 0.561506 -0.46121 0.68702
10.7948 -38.4369 494.583 0.584168 -0.468753 0.662585
10.5738 -38.6409 494.619 0.536149 -0.462129 0.706386
10.3562 -38.813 494.641 0.512747 -0.444185 0.734704
10.1355 -39.0177 494.678 0.511464 -0.429406 0.744322
9.91532 -39.2197 494.714 0.437083 -0.43307 0.788295
9.69755 -39.3986 494.739 0.439005 -0.431386 0.788151
9.4799 -39.5765 494.764 0.412319 -0.42387 0.806429
9.26467 -39.7342 494.78 0.312091 -0.456323 0.833288
9.05445 -39.8418 494.772 0.384549 -0.470865 0.793982
8.83696 -40.0227 494.799 0.403196 -0.459508 0.791382
8.62245 -40.1755 494.812 0.357482 -0.490934 0.794475
8.40943 -40.302 494.818 0.344866 -0.516824 0.783556
8.19694 -40.4438 494.824 0.31517 -0.518156 0.795099
7.98749 -40.5533 494.816 0.318769 -0.510451 0.79864
7.77413 -40.6991 494.827 0.337245 -0.499182 0.798175
7.56194 -40.8333 494.832 0.302256 -0.495593 0.814266
7.35097 -40.9568 494.832 0.243352 -0.509051 0.825619
7.14311 -41.0487 494.818 0.249805 -0.525299 0.813424
6.93206 -41.1752 494.819 0.179664 -0.541787 0.821089
6.72581 -41.2444 494.797 0.127352 -0.566374 0.814249
6.51982 -41.3241 494.775 0.221659 -0.579033 0.784594
6.31146 -41.4243 494.765 0.204324 -0.555813 0.805806
6.10444 -41.5105 494.748 0.16633 -0.527274 0.833256
5.89601 -41.6133 494.739 0.22871 -0.52882 0.817338
5.68725 -41.7205 494.732 0.0933247 -0.538311 0.837563
5.48466 -41.7601 494.694 0.0317561 -0.54505 0.837802
5.28115 -41.8103 494.661 0.132666 -0.53139 0.836675
5.07298 -41.9136 494.652 0.0596917 -0.539696 0.839741
4.87021 -41.9566 494.616 -0.00798412 -0.578484 0.815655
4.66697 -42.0053 494.582 -0.0268998 -0.56546 0.824337
4.4662 -42.0261 494.535 0.0592405 -0.530801 0.845423
4.25852 -42.1268 494.525 0.0326923 -0.512382 0.858135
4.05641 -42.1639 494.486 -0.0689773 -0.53752 0.840425
3.8547 -42.1967 494.445 -0.0515918 -0.561873 0.825613
3.65088 -42.2562 494.416 -0.0862767 -0.551374 0.829785
3.44989 -42.2779 494.37 -0.0439469 -0.525989 0.849355
3.24891 -42.3047 494.326 -0.0238202 -0.49036 0.871194
3.04378 -42.3795 494.305 -0.131734 -0.495964 0.858292
2.84466 -42.387 494.252 -0.164263 -0.569774 0.805217
2.6427 -42.4175 494.21 -0.112287 -0.630198 0.768272
2.44363 -42.4238 494.157 -0.0859525 -0.599695 0.795599
2.24296 -42.4464 494.111 -0.139692 -0.550838 0.822839
2.04386 -42.4521 494.057 -0.213717 -0.531686 0.819534
1.84503 -42.4501 494 -0.216133 -0.544821 0.81022
1.64555 -42.4558 493.947 -0.19709 -0.558727 0.805593
1.44528 -42.4812 493.902 -0.189837 -0.572567 0.797577
1.2456 -42.4868 493.848 -0.255243 -0.576214 0.77642
1.04836 -42.4612 493.78 -0.307297 -0.567196 0.764106
0.85252 -42.4348 493.712 -0.27126 -0.554433 0.786779
0.653359 -42.4326 493.655 -0.271958 -0.542387 0.794893
0.45657 -42.406 493.586 -0.310514 -0.526688 0.791315
0.259375 -42.3841 493.52 -0.334159 -0.494716 0.802243
0.0619194 -42.3654 493.455 -0.313132 -0.4983 0.808484
-0.136071 -42.3533 493.393 -0.338595 -0.523738 0.781698
-0.331147 -42.3027 493.313 -0.390047 -0.531316 0.752042
-0.528699 -42.2841 493.249 -0.378189 -0.514721 0.769438
-0.726149 -42.2639 493.183 -0.398771 -0.534164 0.74542
-0.918482 -42.1748 493.085 -0.39475 -0.578804 0.713553
-1.11491 -42.1397 493.013 -0.399857 -0.53261 0.74595
-1.31191 -42.1119 492.944 -0.485417 -0.495707 0.72017
-1.50554 -42.0377 492.853 -0.481693 -0.556814 0.676705
-1.7005 -41.9807 492.77 -0.439349 -0.571451 0.693121
-1.89609 -41.9315 492.691 -0.479885 -0.536076 0.694502
-2.09004 -41.8588 492.601 -0.461048 -0.560179 0.688211
-2.28596 -41.8129 492.523 -0.540948 -0.521728 0.659678
-2.47698 -41.6976 492.414 -0.603378 -0.495003 0.625226
-2.67201 -41.6364 492.328 -0.575826 -0.550198 0.604736
-2.86254 -41.5097 492.212 -0.554515 -0.554775 0.620273
-3.05742 -41.4457 492.127 -0.460413 -0.562158 0.687021
-3.25165 -41.3704 492.035 -0.481551 -0.509041 0.713432
-3.44616 -41.2982 491.945 -0.609895 -0.40004 0.684102
-3.63621 -41.1594 491.824 -0.65182 -0.371087 0.661382
-3.82756 -41.0378 491.711 -0.625349 -0.403009 0.668223
-4.01927 -40.9199 491.6 -0.639482 -0.393764 0.660312
-4.20995 -40.7885 491.484 -0.678805 -0.378924 0.628999
-4.40018 -40.6409 491.357 -0.679346 -0.415555 0.604817
-4.59222 -40.5282 491.251 -0.703866 -0.439604 0.557962
-4.78104 -40.353 491.109 -0.738468 -0.442882 0.508448
-4.97119 -40.2013 490.982 -0.747918 -0.418799 0.515001
-5.15861 -39.996 490.825 -0.744079 -0.37255 0.554575
-5.34894 -39.8516 490.706 -0.733807 -0.362016 0.574867
-5.53631 -39.6607 490.565 -0.729388 -0.400159 0.554857
-5.72938 -39.5341 490.444 -0.731396 -0.49213 0.472089
-5.9217 -39.4049 490.327 -0.795521 -0.485234 0.362896
-6.10506 -39.1298 490.142 -0.836914 -0.392722 0.38124
-6.2919 -38.9069 489.981 -0.858819 -0.359651 0.364804
-6.47257 -38.5798 489.771 -0.893786 -0.320399 0.313834
-6.65626 -38.2973 489.582 -0.876544 -0.308036 0.369843
-6.84471 -38.0717 489.414 -0.811585 -0.38697 0.437704
-7.02991 -37.8454 489.264 -0.76469 -0.426536 0.483028
-7.22015 -37.6388 489.103 -0.826575 -0.368046 0.425813
-7.40749 -37.4013 488.935 -0.944164 -0.243012 0.222485
-7.57027 -36.7404 488.569 -0.949261 -0.209808 0.234274
-7.75695 -36.4806 488.39 -0.917948 -0.277971 0.283026
-7.93281 -36.0287 488.121 -0.924991 -0.291958 0.243212
-8.11499 -35.6798 487.9 -0.945918 -0.240771 0.217415
-8.28888 -35.1789 487.608 -0.9509 -0.248486 0.18451
11.8725 -37.1205 494.488 0.644954 -0.407384 0.646586
11.646 -37.3686 494.544 0.594403 -0.412556 0.690277
11.4228 -37.5873 494.587 0.568076 -0.407382 0.715073
11.1968 -37.835 494.643 0.569861 -0.41209 0.710943
10.9741 -38.0519 494.686 0.562837 -0.432438 0.704423
10.7506 -38.2788 494.732 0.531439 -0.448112 0.718865
10.5323 -38.4565 494.757 0.5034 -0.463579 0.729166
10.3111 -38.6651 494.795 0.51805 -0.475541 0.710975
10.0924 -38.8495 494.823 0.520192 -0.488731 0.700387
9.87543 -39.0184 494.843 0.469816 -0.481453 0.739916
9.66015 -39.1717 494.857 0.43043 -0.450147 0.782367
9.44329 -39.3425 494.878 0.416303 -0.433846 0.799043
9.22668 -39.5139 494.9 0.36759 -0.464492 0.805683
9.0109 -39.6753 494.917 0.390587 -0.4878 0.7807
8.79599 -39.8307 494.932 0.432556 -0.47922 0.763704
8.57989 -39.9998 494.953 0.390193 -0.501763 0.771999
8.36607 -40.1412 494.963 0.344027 -0.534809 0.771767
8.15638 -40.2565 494.956 0.313079 -0.528511 0.789087
7.94369 -40.3934 494.962 0.315342 -0.515116 0.797004
7.73286 -40.5086 494.96 0.323646 -0.51002 0.796952
7.5217 -40.6297 494.96 0.297424 -0.497806 0.814695
7.31133 -40.7504 494.957 0.258163 -0.492992 0.830849
7.09988 -40.8781 494.96 0.241972 -0.517847 0.820539
6.89243 -40.9654 494.944 0.188947 -0.526892 0.828664
6.68443 -41.0593 494.931 0.156664 -0.520994 0.83906
6.47516 -41.1682 494.924 0.162226 -0.537417 0.827566
6.27053 -41.2342 494.895 0.15481 -0.564684 0.810657
6.0634 -41.3141 494.879 0.201103 -0.548377 0.81169
5.85439 -41.4228 494.872 0.187721 -0.508888 0.840115
5.64922 -41.4897 494.847 0.0675062 -0.490931 0.868579
5.444 -41.5579 494.822 0.0315061 -0.523191 0.851633
5.23781 -41.6377 494.802 0.133365 -0.552062 0.823068
5.03132 -41.7217 494.784 0.097272 -0.539061 0.836631
4.82699 -41.7818 494.756 -0.034521 -0.564314 0.824838
4.62664 -41.797 494.706 -0.0474 -0.594818 0.802462
4.42217 -41.8597 494.679 0.0550688 -0.602881 0.795928
4.21913 -41.9065 494.644 0.0609867 -0.54392 0.836918
4.01399 -41.9781 494.621 -0.0435071 -0.504398 0.862374
3.81209 -42.0126 494.581 -0.0732875 -0.555535 0.828257
3.6124 -42.0215 494.529 -0.104799 -0.589167 0.801187
3.41261 -42.0315 494.477 -0.0729045 -0.586281 0.806821
3.20782 -42.101 494.453 0.00221749 -0.588757 0.808307
3.00725 -42.1208 494.406 -0.0190704 -0.543411 0.83925
2.80134 -42.2049 494.388 -0.0974338 -0.498211 0.861564
2.60192 -42.2114 494.335 -0.184417 -0.48462 0.855064
2.40221 -42.2189 494.282 -0.181333 -0.507056 0.842623
2.20246 -42.2322 494.232 -0.174017 -0.538206 0.824653
2.00287 -42.2409 494.18 -0.196629 -0.528713 0.825712
1.80254 -42.2601 494.133 -0.196487 -0.545179 0.814968
1.60308 -42.266 494.079 -0.176349 -0.566202 0.805181
1.40377 -42.2717 494.026 -0.189884 -0.556573 0.808808
1.20519 -42.2676 493.967 -0.275152 -0.514413 0.812201
1.00753 -42.252 493.904 -0.33263 -0.48575 0.808335
0.810667 -42.2262 493.836 -0.292918 -0.50989 0.808833
0.611908 -42.2241 493.779 -0.293508 -0.531479 0.794596
0.415197 -42.1956 493.709 -0.351219 -0.530926 0.771208
0.218969 -42.1568 493.635 -0.324394 -0.554599 0.766282
0.0215189 -42.1444 493.573 -0.269966 -0.562287 0.781634
-0.177898 -42.1464 493.518 -0.323555 -0.535679 0.779974
-0.374739 -42.1181 493.448 -0.410372 -0.55875 0.72069
-0.567666 -42.0376 493.355 -0.344106 -0.590683 0.729852
-0.767184 -42.042 493.301 -0.341001 -0.551487 0.761302
-0.965666 -42.0392 493.243 -0.45314 -0.521211 0.72319
-1.15789 -41.9439 493.143 -0.434016 -0.55303 0.711187
-1.35372 -41.8994 493.066 -0.410388 -0.542973 0.732641
-1.55061 -41.8687 492.995 -0.472409 -0.529688 0.704458
-1.74379 -41.7865 492.901 -0.47599 -0.5523 0.684397
-1.93863 -41.7261 492.816 -0.453941 -0.554102 0.697789
-2.13483 -41.6839 492.74 -0.491396 -0.534877 0.68734
-2.32656 -41.5783 492.635 -0.552781 -0.473369 0.685824
-2.52034 -41.5003 492.542 -0.55054 -0.483428 0.68059
-2.71356 -41.4139 492.447 -0.574797 -0.496194 0.650692
-2.90634 -41.3184 492.345 -0.564756 -0.509025 0.649572
-3.10091 -41.2482 492.256 -0.51946 -0.532561 0.668237
-3.29412 -41.1572 492.157 -0.584041 -0.472307 0.660168
-3.48349 -41.0088 492.032 -0.629639 -0.383667 0.675541
-3.67542 -40.8959 491.923 -0.626947 -0.383461 0.678156
-3.86866 -40.8008 491.822 -0.636337 -0.430167 0.640337
-4.05919 -40.6639 491.702 -0.651966 -0.42981 0.624663
-4.25148 -40.5515 491.593 -0.65226 -0.440492 0.616866
-4.44444 -40.4475 491.488 -0.65545 -0.471767 0.589763
-4.63564 -40.3165 491.372 -0.693748 -0.488806 0.528945
-4.82665 -40.1779 491.25 -0.756999 -0.465268 0.45878
-5.01233 -39.9565 491.09 -0.780812 -0.392444 0.486127
-5.2009 -39.7709 490.944 -0.752465 -0.357679 0.553047
-5.38955 -39.5895 490.803 -0.710694 -0.406987 0.573826
-5.58264 -39.4866 490.703 -0.652579 -0.524412 0.546931
-5.77897 -39.4171 490.612 -0.702035 -0.576087 0.418652
-5.96412 -39.1726 490.441 -0.835986 -0.440496 0.327247
-6.14761 -38.8979 490.256 -0.846962 -0.382978 0.36876
-6.33549 -38.6902 490.102 -0.864049 -0.343352 0.368142
-6.51697 -38.3747 489.898 -0.90251 -0.308432 0.300577
-6.69497 -37.9967 489.665 -0.855838 -0.312089 0.412482
-6.8867 -37.822 489.52 -0.78673 -0.327086 0.523517
-7.07356 -37.6145 489.376 -0.780706 -0.392976 0.485867
-7.26712 -37.4707 489.248 -0.856979 -0.386155 0.341279
-7.44296 -37.0367 488.988 -0.949871 -0.226232 0.215789
-7.61316 -36.499 488.679 -0.93962 -0.217996 0.263803
-7.79746 -36.1963 488.481 -0.912051 -0.296017 0.283791
-7.9776 -35.8162 488.246 -0.933606 -0.27689 0.227401
-8.15542 -35.3891 487.989 -0.943159 -0.252527 0.216057
-8.33095 -34.9144 487.709 -0.943762 -0.232866 0.234707
11.8297 -36.9497 494.633 0.62189 -0.411637 0.666189
11.6034 -37.1954 494.688 0.587733 -0.43097 0.684715
11.3813 -37.403 494.725 0.592676 -0.432168 0.679681
11.1549 -37.6544 494.783 0.594382 -0.423472 0.683653
10.9318 -37.876 494.827 0.559192 -0.430699 0.70838
10.7101 -38.0851 494.866 0.521481 -0.434095 0.734588
10.4892 -38.2876 494.901 0.506013 -0.43737 0.74341
10.2686 -38.49 494.937 0.518247 -0.454184 0.724663
10.0488 -38.6853 494.969 0.479347 -0.484962 0.731463
9.8323 -38.8495 494.988 0.424355 -0.502057 0.753566
9.6175 -38.9978 494.999 0.428289 -0.486535 0.76148
9.39991 -39.1758 495.023 0.462453 -0.480404 0.745217
9.18281 -39.3506 495.047 0.42922 -0.498642 0.753078
8.96982 -39.4844 495.051 0.41643 -0.509857 0.75275
8.75371 -39.652 495.071 0.45057 -0.498494 0.740601
8.53725 -39.8247 495.094 0.391162 -0.476562 0.787325
8.3251 -39.9539 495.096 0.290625 -0.482864 0.826063
8.11411 -40.0722 495.094 0.291698 -0.52029 0.802628
7.90364 -40.186 495.09 0.310634 -0.511933 0.800894
7.69103 -40.3236 495.096 0.289672 -0.498169 0.817262
7.48027 -40.4378 495.094 0.281922 -0.509206 0.81316
7.26982 -40.5598 495.091 0.286452 -0.497049 0.819077
7.05895 -40.6796 495.091 0.22586 -0.501356 0.835242
6.85161 -40.7728 495.074 0.17935 -0.546527 0.818011
6.64362 -40.8614 495.06 0.195407 -0.552408 0.810346
6.43702 -40.9432 495.041 0.178579 -0.502111 0.846165
6.22587 -41.0705 495.044 0.129005 -0.520472 0.844078
6.02137 -41.1213 495.013 0.154169 -0.574056 0.804171
5.8151 -41.206 494.993 0.156257 -0.567377 0.808497
5.60934 -41.2791 494.97 0.13373 -0.55906 0.818272
5.40061 -41.386 494.963 0.123816 -0.582285 0.803501
5.1977 -41.4284 494.926 0.119054 -0.584852 0.802356
4.99098 -41.5144 494.909 0.100182 -0.534614 0.839138
4.7862 -41.5792 494.883 -0.00214198 -0.543196 0.839603
4.58176 -41.6406 494.855 -0.00902149 -0.61012 0.792258
4.37957 -41.6766 494.815 -0.0246287 -0.610929 0.791303
4.1791 -41.6932 494.767 -0.00457182 -0.578983 0.815327
3.97547 -41.7466 494.735 0.0378823 -0.547491 0.835953
3.77001 -41.822 494.713 -0.0364656 -0.539133 0.841431
3.56666 -41.8756 494.682 -0.106676 -0.581433 0.806571
3.36493 -41.9035 494.638 -0.0411273 -0.632602 0.773384
3.16323 -41.9385 494.598 -0.0560652 -0.621489 0.781414
