-6.65962 -22.0159 503.406 -0.675246 -0.423085 0.604188
-6.82869 -21.9729 503.286 -0.686108 -0.421186 0.593176
-6.98981 -21.9134 503.16 -0.748568 -0.403826 0.5259
-7.13118 -21.8081 503.021 -0.801072 -0.37083 0.46986
-7.24432 -21.6397 502.862 -0.77899 -0.387381 0.493063
-7.40378 -21.5752 502.735 -0.738781 -0.436322 0.51364
-7.55293 -21.4875 502.6 -0.788091 -0.426021 0.444319
-7.66958 -21.3264 502.443 -0.832906 -0.353299 0.425966
-7.81387 -21.2275 502.305 -0.788561 -0.385953 0.47876
-7.96598 -21.1461 502.173 -0.781349 -0.387177 0.489478
-8.09366 -21.0095 502.024 -0.801409 -0.364576 0.474161
-8.22581 -20.8827 501.877 -0.831536 -0.312737 0.459068
-8.34282 -20.7215 501.72 -0.874832 -0.241185 0.420118
-8.4602 -20.5608 501.563 -0.875186 -0.277032 0.396614
-8.59482 -20.4391 501.418 -0.861692 -0.35704 0.360567
-8.72137 -20.2988 501.267 -0.867643 -0.363689 0.339007
-8.83267 -20.1238 501.105 -0.897014 -0.294385 0.329702
-8.94867 -19.9591 500.947 -0.904313 -0.291967 0.311405
-9.06166 -19.7873 500.786 -0.886864 -0.321325 0.331996
-9.17024 -19.6052 500.622 -0.913936 -0.251324 0.318681
-9.27048 -19.4035 500.451 -0.92673 -0.241654 0.287707
-9.39315 -19.2534 500.297 -0.906984 -0.316835 0.277481
-9.49856 -19.0629 500.13 -0.931058 -0.283199 0.230065
-9.58035 -18.8181 499.945 -0.953762 -0.209202 0.215807
-9.67975 -18.6141 499.775 -0.938851 -0.2368 0.249968
-9.78888 -18.4314 499.61 -0.940329 -0.253057 0.227473
-9.87036 -18.1841 499.424 -0.961056 -0.206425 0.183739
-9.95375 -17.9424 499.242 -0.970137 -0.202048 0.134206
-10.0297 -17.6824 499.053 -0.979788 -0.174517 0.0977687
-10.097 -17.4022 498.857 -0.976328 -0.176888 0.124473
-10.1811 -17.1601 498.673 -0.971873 -0.210154 0.106294
-10.2576 -16.9 498.484 -0.980565 -0.174163 0.0903339
-10.3166 -16.599 498.281 -0.990193 -0.129974 0.0512247
-10.332 -16.1967 498.047 -0.996916 -0.0784741 -0.000485371
-10.3851 -15.8812 497.839 -0.994651 -0.101902 0.0168934
-10.4385 -15.5654 497.632 -0.991512 -0.13 -0.00225589
-10.4539 -15.1611 497.396 -0.997378 -0.0503116 -0.0520116
-10.4346 -14.6755 497.135 -0.998162 -0.0165868 -0.0582932
-10.4376 -14.2408 496.889 -0.998461 -0.0247235 -0.0496478
-10.4528 -13.8336 496.652 -0.992291 0.00956365 -0.123562
5.0446 -19.7662 509.094 0.27858 -0.51052 0.813488
4.76655 -19.9507 509.038 0.137003 -0.484893 0.863776
4.49397 -20.1239 508.98 0.131178 -0.498597 0.856851
4.21433 -20.3126 508.926 0.162516 -0.541061 0.825131
3.95811 -20.4519 508.858 0.167732 -0.555751 0.814252
3.68726 -20.6227 508.799 0.167184 -0.556376 0.813939
3.415 -20.7969 508.742 0.134324 -0.560289 0.817333
3.15231 -20.951 508.678 0.0933985 -0.566864 0.8185
2.91157 -21.0587 508.601 0.0570135 -0.563015 0.824477
2.65929 -21.1913 508.532 0.0631009 -0.552892 0.83086
2.39632 -21.3471 508.469 0.0568569 -0.540349 0.839518
2.14523 -21.4762 508.399 0.0164663 -0.536829 0.843531
1.89931 -21.5979 508.326 -0.0381702 -0.568374 0.821885
1.67447 -21.6721 508.24 -0.0356786 -0.603776 0.796356
1.43785 -21.7735 508.161 -0.0364463 -0.590692 0.806074
1.20719 -21.8615 508.079 -0.052407 -0.577657 0.814595
0.977658 -21.9484 507.996 -0.0754908 -0.561674 0.823908
0.751486 -22.0258 507.911 -0.129437 -0.533185 0.836038
0.521182 -22.1145 507.829 -0.1516 -0.546002 0.823954
0.304477 -22.1726 507.739 -0.138121 -0.574455 0.806798
0.0824598 -22.2436 507.651 -0.139941 -0.572552 0.807837
-0.139834 -22.3154 507.564 -0.189766 -0.551506 0.812299
-0.359823 -22.3816 507.476 -0.233843 -0.578527 0.781424
-0.553809 -22.3923 507.372 -0.191923 -0.594506 0.780851
-0.778322 -22.4688 507.287 -0.23046 -0.56345 0.793355
-0.978339 -22.4926 507.186 -0.319117 -0.530368 0.785413
-1.18202 -22.5245 507.087 -0.281582 -0.535673 0.796094
-1.3992 -22.5859 506.998 -0.289651 -0.56281 0.774175
-1.59217 -22.5956 506.893 -0.393356 -0.579742 0.713562
-1.76725 -22.5648 506.776 -0.304449 -0.63267 0.712067
-1.97453 -22.6051 506.681 -0.209408 -0.607253 0.766415
-2.19442 -22.673 506.593 -0.30202 -0.565633 0.767361
-2.3881 -22.6839 506.489 -0.392515 -0.559525 0.729975
-2.57118 -22.6717 506.377 -0.385218 -0.544568 0.745019
-2.78012 -22.7162 506.283 -0.325931 -0.552581 0.767088
-2.9742 -22.7283 506.179 -0.383847 -0.550343 0.741474
-3.14835 -22.6967 506.062 -0.484839 -0.523218 0.700838
-3.33097 -22.6838 505.951 -0.431704 -0.544677 0.718998
-3.52446 -22.6948 505.847 -0.459839 -0.528456 0.71364
-3.69588 -22.6573 505.728 -0.537395 -0.492908 0.684287
-3.87695 -22.6411 505.615 -0.466934 -0.516658 0.717661
-4.05261 -22.6131 505.5 -0.485734 -0.477663 0.732052
-4.23647 -22.6032 505.389 -0.559834 -0.450627 0.695357
-4.40589 -22.5617 505.269 -0.540243 -0.494218 0.681092
-4.58581 -22.5421 505.156 -0.505629 -0.515598 0.691735
-4.7696 -22.5331 505.046 -0.550455 -0.501873 0.667175
-4.93896 -22.491 504.925 -0.601959 -0.491653 0.629224
-5.09996 -22.4305 504.8 -0.61404 -0.492076 0.617104
-5.26765 -22.3851 504.679 -0.597882 -0.505801 0.621854
-5.43378 -22.336 504.556 -0.611369 -0.507669 0.607043
-5.58945 -22.2636 504.427 -0.659772 -0.483874 0.574949
-5.74851 -22.1988 504.3 -0.659545 -0.488257 0.571494
-5.91181 -22.1433 504.176 -0.626729 -0.525108 0.575736
-6.06954 -22.0754 504.047 -0.6259 -0.509828 0.590189
-6.22945 -22.0123 503.921 -0.65409 -0.464661 0.596872
-6.39694 -21.9662 503.8 -0.673837 -0.482655 0.559454
-6.55317 -21.8947 503.67 -0.704631 -0.479591 0.522961
-6.6998 -21.8017 503.534 -0.664588 -0.501484 0.553929
-6.86681 -21.7545 503.413 -0.672967 -0.479099 0.563542
-6.99792 -21.6265 503.266 -0.755826 -0.354826 0.550296
-7.14442 -21.5329 503.13 -0.794751 -0.316593 0.517823
-7.29435 -21.447 502.996 -0.751653 -0.388749 0.532815
-7.45529 -21.3858 502.87 -0.725381 -0.425612 0.540996
-7.58586 -21.2561 502.723 -0.828247 -0.355444 0.433205
-7.7154 -21.1239 502.575 -0.827225 -0.358949 0.432266
-7.85191 -21.0072 502.432 -0.790596 -0.360706 0.494822
-7.97541 -20.861 502.279 -0.791192 -0.335989 0.511005
-8.12758 -20.7795 502.147 -0.83039 -0.342735 0.439301
-8.24016 -20.6082 501.987 -0.867059 -0.3116 0.388734
-8.3682 -20.4713 501.836 -0.856181 -0.339214 0.389729
-8.50735 -20.3601 501.695 -0.821626 -0.440247 0.362096
-8.64564 -20.2467 501.553 -0.85291 -0.380934 0.356979
-8.75101 -20.0581 501.387 -0.896074 -0.291198 0.335044
-8.86513 -19.8891 501.227 -0.894977 -0.310699 0.320128
-8.98349 -19.7296 501.07 -0.896591 -0.314776 0.311515
-9.09431 -19.5527 500.908 -0.913568 -0.279844 0.295096
-9.19665 -19.3561 500.739 -0.914238 -0.280539 0.292347
-9.31977 -19.2065 500.585 -0.898317 -0.32277 0.298071
-9.43036 -19.0286 500.423 -0.910954 -0.301693 0.281325
-9.53159 -18.8284 500.252 -0.949957 -0.218159 0.22358
-9.6124 -18.581 500.067 -0.951203 -0.229291 0.206492
-9.71771 -18.3898 499.9 -0.931201 -0.272088 0.242555
-9.81229 -18.1736 499.725 -0.947876 -0.236366 0.213688
-9.90323 -17.9486 499.547 -0.956886 -0.23261 0.173959
-10.0021 -17.7415 499.375 -0.972019 -0.191609 0.135885
-10.0519 -17.421 499.167 -0.981371 -0.155528 0.112794
-10.1269 -17.1581 498.976 -0.969113 -0.193618 0.152749
-10.2195 -16.9353 498.799 -0.976807 -0.159892 0.142419
-10.2552 -16.5808 498.58 -0.983894 -0.127898 0.12488
-10.3367 -16.3315 498.393 -0.991675 -0.0694037 0.108461
-10.3661 -15.9612 498.169 -0.996348 -0.0450135 0.0725622
-10.3984 -15.597 497.947 -0.992902 -0.107182 0.051552
-10.4466 -15.2688 497.735 -0.996121 -0.0878813 -0.00447595
-10.4553 -14.8484 497.495 -0.994738 -0.0503885 -0.0892082
-10.4511 -14.3975 497.244 -0.987357 -0.0670451 -0.143637
-10.4486 -13.9495 496.995 -0.993232 -0.0503795 -0.104651
-10.4188 -13.4371 496.724 -0.993733 0.0457689 -0.101976
5.01899 -19.5245 509.218 0.210941 -0.505304 0.836763
4.74891 -19.692 509.157 0.158605 -0.494758 0.854435
4.45779 -19.9047 509.11 0.185964 -0.501989 0.844645
4.17417 -20.1019 509.059 0.134605 -0.484864 0.864169
3.89614 -20.2876 509.004 0.110705 -0.48295 0.868622
3.62119 -20.4672 508.948 0.12201 -0.506077 0.853814
3.36487 -20.6075 508.88 0.0954397 -0.514417 0.852213
3.10524 -20.7552 508.815 0.0625913 -0.543016 0.837387
2.85281 -20.8878 508.745 0.0573287 -0.578255 0.813839
2.60193 -21.0175 508.674 0.0690914 -0.583674 0.809043
2.36796 -21.1112 508.593 0.067971 -0.572395 0.817156
2.11214 -21.2521 508.526 0.054732 -0.552362 0.831806
1.86213 -21.3825 508.456 -0.0051937 -0.554407 0.832229
1.61606 -21.5015 508.383 -0.0668341 -0.580357 0.811615
1.3993 -21.5602 508.292 -0.0636948 -0.577337 0.814018
1.15742 -21.6715 508.216 -0.0880601 -0.556892 0.825903
0.940063 -21.7304 508.126 -0.114409 -0.565868 0.816519
0.710735 -21.8168 508.043 -0.0949517 -0.56822 0.81738
0.485401 -21.894 507.958 -0.116539 -0.544613 0.830551
0.2512 -21.9906 507.878 -0.15878 -0.541193 0.825772
0.0391267 -22.0407 507.784 -0.169254 -0.574085 0.801111
-0.175087 -22.0935 507.692 -0.153679 -0.560588 0.81371
-0.400478 -22.1714 507.608 -0.238955 -0.522047 0.81876
-0.609044 -22.2138 507.512 -0.256472 -0.544326 0.798706
-0.815824 -22.2518 507.416 -0.28125 -0.538489 0.79431
-1.00725 -22.2571 507.309 -0.324011 -0.504536 0.800288
-1.22001 -22.3087 507.217 -0.245857 -0.54038 0.804701
-1.42536 -22.3443 507.119 -0.27 -0.544631 0.794026
-1.63577 -22.391 507.026 -0.354775 -0.526131 0.772866
-1.84554 -22.4358 506.932 -0.347726 -0.60354 0.717514
-2.03072 -22.4286 506.821 -0.251102 -0.632621 0.732625
-2.23317 -22.4585 506.722 -0.294513 -0.585742 0.755095
-2.42193 -22.4585 506.615 -0.418413 -0.539047 0.730999
-2.61075 -22.4588 506.507 -0.387735 -0.522057 0.759683
-2.80157 -22.4635 506.401 -0.334766 -0.524855 0.782598
-3.00438 -22.4946 506.303 -0.422156 -0.485622 0.765477
-3.19317 -22.4951 506.195 -0.475919 -0.493034 0.728299
-3.37943 -22.49 506.086 -0.451387 -0.529937 0.717925
-3.55602 -22.4638 505.971 -0.497036 -0.486465 0.718545
-3.73635 -22.4458 505.858 -0.522682 -0.499132 0.691137
-3.91085 -22.4151 505.741 -0.504501 -0.541323 0.672642
-4.09087 -22.3965 505.628 -0.484086 -0.548055 0.682126
-4.27161 -22.3796 505.515 -0.487655 -0.563032 0.667224
-4.45387 -22.3661 505.403 -0.505198 -0.566846 0.650739
-4.62992 -22.3389 505.288 -0.49531 -0.576515 0.649845
-4.80098 -22.3006 505.169 -0.538168 -0.545547 0.642459
-4.97019 -22.2585 505.049 -0.600916 -0.47237 0.6448
-5.13979 -22.2161 504.928 -0.609793 -0.451362 0.651479
-5.30709 -22.1704 504.807 -0.598363 -0.465619 0.652043
-5.47637 -22.1281 504.687 -0.628972 -0.45467 0.63061
-5.64069 -22.0735 504.562 -0.658236 -0.460275 0.595712
-5.79937 -22.0096 504.436 -0.6319 -0.487164 0.602805
-5.96863 -21.9668 504.316 -0.648653 -0.492965 0.579857
-6.11963 -21.8837 504.183 -0.668135 -0.487119 0.562415
-6.28157 -21.8249 504.057 -0.6205 -0.510507 0.595284
-6.44726 -21.7749 503.935 -0.664868 -0.482355 0.570336
-6.59069 -21.6745 503.797 -0.701348 -0.447055 0.555205
-6.75811 -21.6281 503.675 -0.689075 -0.466949 0.554197
-6.89695 -21.5174 503.534 -0.767526 -0.437579 0.468432
-7.03082 -21.3954 503.389 -0.77369 -0.438318 0.457473
-7.18585 -21.3209 503.259 -0.744766 -0.453772 0.4893
-7.32073 -21.1999 503.115 -0.723653 -0.451026 0.5224
-7.47466 -21.1249 502.985 -0.745367 -0.388258 0.541926
-7.61698 -21.0203 502.845 -0.825412 -0.338878 0.451506
-7.74296 -20.8799 502.694 -0.841289 -0.346293 0.415108
-7.86563 -20.7317 502.541 -0.811368 -0.345944 0.471174
-8.02315 -20.6622 502.413 -0.765036 -0.419071 0.488978
-8.16467 -20.5564 502.273 -0.836097 -0.387495 0.388315
-8.27787 -20.3866 502.114 -0.853976 -0.35753 0.378017
-8.42815 -20.3002 501.979 -0.791863 -0.431811 0.431847
-8.56635 -20.1864 501.836 -0.853708 -0.369411 0.367039
-8.65489 -19.9595 501.659 -0.890515 -0.304214 0.338284
-8.78735 -19.832 501.511 -0.88518 -0.324796 0.333113
-8.90713 -19.676 501.356 -0.891714 -0.3255 0.314477
-9.01913 -19.5015 501.194 -0.907512 -0.293254 0.300705
-9.12154 -19.3054 501.026 -0.912819 -0.278773 0.298409
-9.24126 -19.149 500.871 -0.899341 -0.310893 0.307461
-9.3515 -18.9692 500.707 -0.903379 -0.309643 0.296694
-9.45778 -18.7815 500.542 -0.92975 -0.235332 0.283166
-9.54708 -18.5532 500.362 -0.942888 -0.205728 0.261989
-9.65692 -18.3723 500.198 -0.944258 -0.236764 0.228735
-9.74366 -18.1381 500.017 -0.937743 -0.28398 0.199985
-9.85308 -17.9557 499.853 -0.943656 -0.267439 0.19491
-9.94295 -17.7283 499.675 -0.962121 -0.214594 0.168145
-10.0038 -17.433 499.474 -0.97644 -0.17351 0.128293
-10.0853 -17.1852 499.289 -0.978492 -0.161275 0.128626
-10.1605 -16.9237 499.101 -0.974063 -0.199165 0.107395
-10.217 -16.616 498.895 -0.980781 -0.170178 0.0954316
-10.3032 -16.3777 498.712 -0.990772 -0.115662 0.0706591
-10.3073 -15.9491 498.47 -0.994158 -0.0947834 0.0516393
-10.3657 -15.6454 498.267 -0.99133 -0.126948 0.0338835
-10.4412 -15.3809 498.076 -0.98491 -0.168524 -0.0393973
-10.4765 -15.0225 497.855 -0.994661 -0.100143 -0.0249031
-10.51 -14.6594 497.632 -0.998747 -0.0414787 -0.0280071
-10.5142 -14.2275 497.388 -0.996913 -0.0120909 -0.0775836
-10.4593 -13.6571 497.1 -0.996549 0.024229 -0.0793865
-10.4085 -13.0953 496.814 -0.990477 0.0562739 -0.125652
4.97442 -19.3228 509.354 0.241008 -0.569448 0.785903
4.68468 -19.5322 509.305 0.24818 -0.583322 0.773397
4.41247 -19.7047 509.247 0.227872 -0.58932 0.775098
4.15536 -19.8455 509.179 0.191608 -0.563928 0.803288
3.88139 -20.0226 509.121 0.172224 -0.525218 0.833357
3.60794 -20.199 509.064 0.116687 -0.494566 0.861272
3.33558 -20.3735 509.006 0.0924121 -0.478303 0.873319
3.05624 -20.5633 508.953 0.0624754 -0.491314 0.868739
2.80808 -20.6869 508.88 0.0140966 -0.503849 0.863677
2.55766 -20.8156 508.809 -0.00103917 -0.502398 0.864636
2.30056 -20.9589 508.743 0.0212792 -0.544672 0.838379
2.0596 -21.0677 508.666 0.0649164 -0.579541 0.812354
1.80889 -21.1983 508.596 0.00929015 -0.545789 0.837871
1.57686 -21.2887 508.514 -0.104552 -0.52273 0.846063
1.34895 -21.3705 508.43 -0.108733 -0.549835 0.828165
1.12415 -21.4459 508.344 -0.0863664 -0.546439 0.833034
0.884097 -21.5544 508.267 -0.12471 -0.539213 0.832885
0.665926 -21.6169 508.177 -0.128076 -0.566855 0.813801
0.443889 -21.6854 508.09 -0.102588 -0.581939 0.806736
0.222421 -21.7551 508.002 -0.113848 -0.551373 0.826454
-0.0152472 -21.8589 507.925 -0.204341 -0.535815 0.819235
-0.21463 -21.8801 507.823 -0.196515 -0.578298 0.791804
-0.431775 -21.9415 507.733 -0.198448 -0.548358 0.812356
-0.642488 -21.9887 507.638 -0.275533 -0.516204 0.810935
-0.847114 -22.0216 507.541 -0.318184 -0.54891 0.772953
-1.04727 -22.0455 507.44 -0.258067 -0.560863 0.78666
-1.27193 -22.123 507.355 -0.246396 -0.527147 0.813268
-1.47105 -22.145 507.253 -0.299255 -0.519062 0.800638
-1.67325 -22.1738 507.154 -0.24638 -0.56119 0.790166
-1.88459 -22.2227 507.061 -0.348434 -0.514715 0.783366
-2.07138 -22.2182 506.952 -0.361925 -0.504611 0.783823
-2.28479 -22.2719 506.86 -0.344549 -0.582835 0.735927
-2.46245 -22.2476 506.745 -0.426153 -0.591509 0.684478
-2.64983 -22.2446 506.636 -0.373152 -0.567815 0.733719
-2.85395 -22.2786 506.539 -0.362839 -0.558288 0.746098
-3.03384 -22.2589 506.425 -0.389018 -0.53378 0.750829
-3.23142 -22.2788 506.324 -0.433984 -0.500653 0.749003
-3.41055 -22.2581 506.21 -0.507678 -0.479795 0.715584
-3.58605 -22.2291 506.093 -0.469871 -0.512693 0.718587
-3.78604 -22.2545 505.993 -0.465874 -0.541885 0.699515
-3.96146 -22.2257 505.877 -0.502073 -0.535816 0.67884
-4.14463 -22.2145 505.766 -0.464638 -0.551378 0.692888
-4.33034 -22.2074 505.656 -0.483644 -0.548624 0.681983
-4.50239 -22.1718 505.538 -0.508804 -0.517816 0.687738
-4.68381 -22.1564 505.426 -0.539829 -0.504687 0.673703
-4.85312 -22.1143 505.306 -0.614245 -0.497123 0.612839
-5.00309 -22.0291 505.173 -0.618694 -0.492696 0.611938
-5.17232 -21.9865 505.052 -0.590564 -0.494377 0.637829
-5.33862 -21.9383 504.93 -0.597939 -0.487456 0.636283
-5.50473 -21.8883 504.808 -0.610431 -0.473644 0.63485
-5.6698 -21.8362 504.684 -0.638789 -0.457502 0.618579
-5.83072 -21.7761 504.559 -0.623803 -0.4598 0.632023
-5.99948 -21.7303 504.437 -0.65454 -0.438609 0.615792
-6.15215 -21.6536 504.307 -0.663997 -0.451245 0.596227
-6.32144 -21.6103 504.186 -0.642902 -0.46251 0.610542
-6.47175 -21.5254 504.053 -0.693825 -0.417337 0.586887
-6.63191 -21.4625 503.926 -0.689146 -0.39744 0.605904
-6.78409 -21.3817 503.794 -0.689857 -0.376138 0.618561
-6.94884 -21.329 503.671 -0.765654 -0.352368 0.538154
-7.08496 -21.212 503.527 -0.774852 -0.395783 0.492909
-7.22725 -21.1086 503.388 -0.756814 -0.440956 0.482483
-7.37408 -21.0154 503.252 -0.773173 -0.450983 0.445889
-7.50464 -20.8854 503.105 -0.751915 -0.449519 0.482241
-7.65932 -20.8097 502.974 -0.811386 -0.394792 0.431036
-7.77685 -20.65 502.818 -0.854307 -0.378821 0.355885
-7.91306 -20.5323 502.674 -0.767652 -0.422233 0.48211
-8.06943 -20.46 502.545 -0.75637 -0.412409 0.507764
-8.19518 -20.3183 502.394 -0.849615 -0.360241 0.385203
-8.32251 -20.1798 502.243 -0.827974 -0.38615 0.406629
-8.45906 -20.0625 502.1 -0.813108 -0.369254 0.450008
-8.57445 -19.8967 501.941 -0.878566 -0.306641 0.366188
-8.71046 -19.7776 501.797 -0.880679 -0.339701 0.330165
-8.83037 -19.6217 501.642 -0.880858 -0.343564 0.325657
-8.93491 -19.4307 501.476 -0.902245 -0.304291 0.30555
-9.0494 -19.2618 501.316 -0.912451 -0.280773 0.297657
-9.15709 -19.077 501.15 -0.902181 -0.294571 0.315116
-9.27746 -18.9219 500.996 -0.897856 -0.31738 0.305162
-9.38486 -18.7349 500.828 -0.928726 -0.275203 0.248456
-9.47302 -18.5062 500.652 -0.937714 -0.234222 0.256577
-9.58295 -18.3257 500.489 -0.930518 -0.262296 0.255613
-9.68405 -18.1234 500.316 -0.925987 -0.294092 0.236766
-9.80447 -17.9662 500.159 -0.941322 -0.282561 0.184587
-9.87671 -17.6978 499.968 -0.953879 -0.247982 0.169176
-9.96655 -17.4711 499.791 -0.966921 -0.197484 0.161441
-10.0518 -17.2309 499.607 -0.9784 -0.173711 0.11206
-10.1073 -16.9218 499.401 -0.9703 -0.209883 0.120276
-10.2085 -16.72 499.232 -0.976063 -0.206897 0.0670418
-10.2595 -16.4003 499.024 -0.982193 -0.187445 0.0126773
-10.305 -16.0676 498.812 -0.990311 -0.137418 0.0200181
-10.366 -15.7704 498.611 -0.989442 -0.142515 0.0263538
-10.4486 -15.5224 498.425 -0.974728 -0.222686 -0.017773
-10.4851 -15.1673 498.205 -0.987961 -0.136526 -0.0727559
-10.4726 -14.6975 497.95 -0.998025 -0.0584311 -0.0230527
-10.4883 -14.2924 497.714 -0.999872 -0.0116832 0.0109591
-10.4653 -13.7967 497.45 -0.998947 0.0384364 -0.0250633
-10.4348 -13.2824 497.18 -0.996884 0.0432385 -0.0659812
-10.4034 -12.765 496.908 -0.987318 0.0110102 -0.158372
4.34395 -19.5541 509.397 0.175432 -0.576391 0.798121
4.07467 -19.7209 509.337 0.162757 -0.591041 0.790051
3.81591 -19.8656 509.27 0.185661 -0.602193 0.776462
3.55524 -20.0148 509.204 0.169835 -0.592186 0.7877
3.3007 -20.1513 509.135 0.170796 -0.565759 0.806688
3.03231 -20.3177 509.075 0.0980322 -0.530106 0.842245
2.7839 -20.4417 509.003 0.0226742 -0.52205 0.852614
2.53118 -20.5753 508.933 0.0681507 -0.526649 0.847346
2.26641 -20.7351 508.871 0.0524689 -0.519468 0.852877
2.01157 -20.8738 508.803 -0.00244371 -0.558936 0.829207
1.79011 -20.9416 508.714 -0.0337819 -0.545614 0.837356
1.53971 -21.0713 508.644 -0.0923596 -0.488995 0.867383
1.30943 -21.1582 508.561 -0.131971 -0.511731 0.848949
1.08192 -21.2399 508.477 -0.0918381 -0.558973 0.824084
0.856873 -21.3143 508.391 -0.0800632 -0.558744 0.825466
0.617125 -21.4228 508.314 -0.124691 -0.535361 0.835368
0.391109 -21.502 508.229 -0.161472 -0.547814 0.82087
0.177869 -21.5543 508.136 -0.122405 -0.580521 0.804992
-0.0424449 -21.6214 508.047 -0.148208 -0.542921 0.826602
-0.275072 -21.7153 507.967 -0.262306 -0.518223 0.814028
-0.463678 -21.7124 507.859 -0.231564 -0.565389 0.791652
-0.689208 -21.7911 507.774 -0.206367 -0.573485 0.792798
-0.900363 -21.8381 507.68 -0.297069 -0.567665 0.767793
-1.09401 -21.8485 507.575 -0.276123 -0.618085 0.736021
-1.28396 -21.8502 507.467 -0.225155 -0.591305 0.77438
-1.508 -21.9264 507.382 -0.253952 -0.506661 0.823895
-1.72517 -21.9879 507.292 -0.324897 -0.502123 0.801445
-1.90199 -21.9613 507.177 -0.366474 -0.495514 0.787504
-2.11473 -22.0134 507.084 -0.25901 -0.529467 0.807823
-2.33583 -22.0839 506.997 -0.354614 -0.505816 0.786384
-2.51502 -22.0629 506.883 -0.494914 -0.465924 0.733467
-2.69705 -22.0481 506.771 -0.398134 -0.532142 0.747204
-2.88885 -22.0548 506.665 -0.403767 -0.519323 0.753177
-3.07766 -22.055 506.558 -0.423104 -0.537439 0.729481
-3.26369 -22.0492 506.448 -0.422905 -0.576406 0.699219
-3.44699 -22.0375 506.337 -0.45165 -0.568543 0.687584
-3.6428 -22.0534 506.234 -0.416038 -0.575278 0.70425
-3.8208 -22.0303 506.12 -0.463348 -0.551843 0.693382
-3.99775 -22.0043 506.004 -0.493649 -0.524535 0.693667
-4.18118 -21.9933 505.893 -0.470247 -0.531107 0.704836
-4.35866 -21.969 505.778 -0.519725 -0.530988 0.669281
-4.52893 -21.9287 505.659 -0.514074 -0.531017 0.673609
-4.71273 -21.919 505.548 -0.527938 -0.503363 0.684038
-4.8824 -21.877 505.428 -0.623338 -0.458102 0.633713
-5.05147 -21.8344 505.308 -0.626116 -0.486224 0.609562
-5.21759 -21.7846 505.185 -0.592745 -0.513612 0.620367
-5.38566 -21.7395 505.064 -0.607549 -0.499822 0.617303
-5.54841 -21.6825 504.939 -0.616318 -0.493754 0.613481
-5.71426 -21.6318 504.816 -0.637977 -0.481116 0.601259
-5.8703 -21.5611 504.687 -0.636926 -0.461459 0.61756
-6.03537 -21.5083 504.564 -0.637302 -0.442023 0.631238
-6.20033 -21.4566 504.441 -0.658351 -0.45838 0.597045
-6.35118 -21.3726 504.308 -0.674757 -0.448811 0.585894
-6.51088 -21.3086 504.181 -0.716702 -0.392329 0.576555
-6.64697 -21.1916 504.038 -0.711267 -0.389589 0.585081
-6.80838 -21.1313 503.912 -0.681523 -0.427541 0.593914
-6.95709 -21.0424 503.777 -0.717948 -0.417978 0.556637
-7.11268 -20.9689 503.647 -0.740755 -0.406841 0.534567
-7.2695 -20.8981 503.518 -0.741053 -0.410969 0.530985
-7.41423 -20.8 503.381 -0.787134 -0.37032 0.493237
-7.55104 -20.684 503.238 -0.775982 -0.393045 0.493323
-7.69618 -20.5865 503.1 -0.799947 -0.351623 0.486257
-7.82814 -20.4592 502.954 -0.860677 -0.320062 0.395973
-7.93841 -20.2826 502.792 -0.781215 -0.420761 0.461154
-8.09878 -20.2193 502.665 -0.75601 -0.384774 0.529526
-8.23807 -20.1083 502.524 -0.840971 -0.353424 0.409706
-8.36191 -19.9617 502.371 -0.846939 -0.388264 0.363243
-8.48457 -19.8124 502.218 -0.828242 -0.404808 0.387487
-8.63665 -19.7298 502.085 -0.854326 -0.375504 0.359338
-8.73709 -19.5295 501.915 -0.876411 -0.294437 0.381066
-8.86061 -19.3816 501.762 -0.891401 -0.272634 0.362044
-8.97428 -19.2108 501.602 -0.909893 -0.288395 0.298201
-9.08189 -19.026 501.437 -0.9103 -0.285981 0.29928
-9.1921 -18.8471 501.274 -0.890972 -0.311541 0.330321
-9.31901 -18.7063 501.124 -0.903948 -0.296739 0.307934
-9.41433 -18.4916 500.948 -0.941989 -0.239056 0.235604
-9.51071 -18.2796 500.774 -0.92964 -0.275488 0.244694
-9.62624 -18.113 500.617 -0.916616 -0.318363 0.241786
-9.73133 -17.9209 500.449 -0.920963 -0.304214 0.243477
-9.83116 -17.716 500.277 -0.948448 -0.226687 0.221493
-9.91341 -17.4693 500.091 -0.964453 -0.204736 0.167071
-10.0023 -17.2398 499.914 -0.967029 -0.194602 0.164269
-10.0634 -16.9447 499.714 -0.972319 -0.156749 0.173279
-10.1656 -16.7441 499.543 -0.966304 -0.202117 0.159393
-10.2353 -16.4682 499.349 -0.976644 -0.179455 0.118165
-10.3039 -16.1891 499.154 -0.989615 -0.142268 0.0205565
-10.3409 -15.8362 498.936 -0.987751 -0.155892 -0.00680449
-10.3959 -15.5246 498.73 -0.980427 -0.163863 0.109144
-10.4717 -15.2608 498.54 -0.988068 -0.0907122 0.12447
-10.4956 -14.8759 498.311 -0.999643 -0.0181138 0.0196602
-10.4963 -14.4362 498.065 -0.999151 -0.0234825 -0.0338372
-10.5003 -14.0036 497.821 -0.998095 -0.019509 -0.0585381
-10.4802 -13.514 497.559 -0.99254 -0.0169945 -0.120731
-10.4589 -13.0208 497.295 -0.9852 -0.0494308 -0.164125
-10.4655 -12.5916 497.052 -0.97597 -0.0761066 -0.204182
4.307 -19.336 509.528 0.155801 -0.538014 0.828412
4.03402 -19.5107 509.47 0.141417 -0.539326 0.830137
3.76266 -19.6824 509.411 0.130348 -0.55445 0.821946
3.4973 -19.8417 509.348 0.133884 -0.584949 0.799944
3.23564 -19.9934 509.283 0.138085 -0.602637 0.785978
2.98492 -20.1221 509.212 0.124479 -0.596666 0.792777
2.72336 -20.2743 509.148 0.0890838 -0.593879 0.799607
2.47743 -20.3934 509.074 0.101289 -0.586957 0.803257
2.22284 -20.5314 509.005 0.120716 -0.564488 0.816566
1.95756 -20.6927 508.944 -0.0370293 -0.538696 0.841686
1.74295 -20.7454 508.851 -0.104146 -0.561053 0.821202
1.51757 -20.8214 508.765 -0.00569729 -0.586415 0.809991
1.26829 -20.9484 508.694 -0.0335081 -0.573454 0.818552
1.03141 -21.0506 508.615 -0.0834762 -0.57095 0.81673
0.80273 -21.134 508.531 -0.10565 -0.573024 0.8127
0.590536 -21.1831 508.437 -0.0975444 -0.560004 0.822728
0.355853 -21.2804 508.357 -0.132218 -0.522499 0.842326
0.124743 -21.3703 508.276 -0.199863 -0.527087 0.825975
-0.0787583 -21.3997 508.177 -0.178302 -0.549704 0.816109
-0.295396 -21.4585 508.086 -0.208224 -0.511901 0.833427
-0.524882 -21.5454 508.003 -0.239467 -0.52568 0.816282
-0.728834 -21.5784 507.904 -0.215751 -0.570099 0.792741
-0.936441 -21.6183 507.808 -0.233407 -0.572038 0.786317
-1.16308 -21.6998 507.724 -0.315394 -0.604885 0.731191
-1.3461 -21.6867 507.612 -0.308189 -0.656714 0.688292
-1.53497 -21.6859 507.504 -0.18898 -0.645037 0.740414
-1.74641 -21.7348 507.411 -0.314341 -0.541652 0.779617
-1.94641 -21.7588 507.31 -0.317028 -0.53097 0.785852
-2.16273 -21.8187 507.22 -0.261412 -0.580687 0.771017
-2.33469 -21.7816 507.101 -0.387556 -0.493127 0.778862
-2.53976 -21.817 507.004 -0.434976 -0.453515 0.777894
-2.73233 -21.8252 506.898 -0.417638 -0.518144 0.746395
-2.92421 -21.832 506.792 -0.372782 -0.537819 0.756164
-3.12841 -21.866 506.695 -0.387174 -0.504218 0.77192
-3.32437 -21.882 506.592 -0.4524 -0.495408 0.741556
-3.50296 -21.8598 506.477 -0.45919 -0.533569 0.710245
-3.68053 -21.8355 506.362 -0.446322 -0.547456 0.707876
-3.86841 -21.834 506.254 -0.49902 -0.519499 0.693614
-4.0431 -21.803 506.137 -0.488949 -0.529271 0.693398
-4.22919 -21.7978 506.028 -0.460814 -0.529627 0.712142
-4.41663 -21.7954 505.92 -0.531946 -0.481348 0.696662
-4.5859 -21.7538 505.8 -0.556641 -0.465101 0.688355
-4.75591 -21.7119 505.679 -0.558925 -0.48101 0.67545
-4.92336 -21.6661 505.558 -0.584943 -0.497684 0.640431
-5.09319 -21.6232 505.437 -0.603876 -0.500885 0.620038
-5.25359 -21.5622 505.312 -0.606897 -0.495541 0.621381
-5.42297 -21.5195 505.191 -0.61661 -0.466948 0.633839
-5.58432 -21.4591 505.065 -0.628829 -0.453273 0.631758
-5.75013 -21.4091 504.943 -0.661848 -0.459885 0.592
-5.8986 -21.3199 504.808 -0.655179 -0.481886 0.58183
-6.06779 -21.2769 504.687 -0.60434 -0.496868 0.622812
-6.23414 -21.2284 504.565 -0.661061 -0.472666 0.582739
-6.38809 -21.1509 504.434 -0.713891 -0.481121 0.508804
-6.52791 -21.0421 504.293 -0.719505 -0.43508 0.541311
-6.69567 -20.996 504.172 -0.681103 -0.429417 0.593042
-6.85769 -20.9369 504.046 -0.670627 -0.491623 0.555487
-7.01521 -20.8677 503.918 -0.71404 -0.482333 0.507447
-7.15765 -20.7645 503.779 -0.734869 -0.43965 0.516406
-7.29655 -20.6532 503.637 -0.759565 -0.407077 0.507296
-7.43455 -20.5397 503.495 -0.771537 -0.394474 0.49912
-7.58542 -20.4552 503.362 -0.80193 -0.364344 0.473458
-7.70063 -20.2899 503.204 -0.795679 -0.39284 0.461055
-7.86128 -20.2273 503.077 -0.822458 -0.35913 0.441122
-7.99022 -20.0927 502.928 -0.822135 -0.380838 0.42315
-8.12292 -19.9665 502.782 -0.737479 -0.463328 0.491378
-8.28207 -19.9002 502.654 -0.808604 -0.39588 0.435246
-8.40357 -19.748 502.499 -0.844257 -0.394108 0.363193
-8.54845 -19.6493 502.362 -0.836144 -0.410425 0.363887
-8.64832 -19.4476 502.192 -0.895993 -0.288786 0.33734
-8.75344 -19.2579 502.027 -0.883169 -0.28686 0.371111
-8.89633 -19.1542 501.888 -0.871758 -0.314297 0.375838
-9.00284 -18.9668 501.722 -0.909958 -0.267714 0.316712
-9.11423 -18.7903 501.559 -0.906204 -0.30096 0.297014
-9.23123 -18.6265 501.401 -0.893247 -0.324425 0.311222
-9.34036 -18.4444 501.237 -0.912732 -0.263654 0.312101
-9.44497 -18.2517 501.07 -0.931166 -0.236144 0.277787
-9.55486 -18.0707 500.906 -0.915075 -0.307626 0.260776
-9.66755 -17.8956 500.743 -0.922021 -0.288749 0.257878
-9.75781 -17.6695 500.566 -0.941281 -0.229739 0.247406
-9.85071 -17.4487 500.39 -0.946826 -0.216052 0.238416
-9.95243 -17.248 500.22 -0.966232 -0.197021 0.166068
-10.0075 -16.9391 500.016 -0.975034 -0.173644 0.138405
-10.0989 -16.7135 499.838 -0.962222 -0.190925 0.194105
-10.1831 -16.471 499.654 -0.966821 -0.191646 0.168903
-10.2535 -16.1962 499.461 -0.974626 -0.162788 0.153637
-10.3424 -15.9639 499.28 -0.987855 -0.0963548 0.121894
-10.3699 -15.5887 499.055 -0.994217 -0.105195 0.0216148
-10.4147 -15.2531 498.842 -0.99023 -0.125143 0.0615143
-10.4508 -14.8965 498.623 -0.990264 -0.0529699 0.128727
-10.4973 -14.5636 498.41 -0.998499 -0.0173314 0.0519477
-10.5022 -14.1334 498.167 -0.999755 -0.0163141 -0.0149862
-10.5063 -13.7004 497.923 -0.999209 -0.0202415 -0.034229
-10.5202 -13.2896 497.686 -0.992656 -0.041788 -0.113528
-10.5096 -12.8207 497.43 -0.976538 -0.0911925 -0.195083
4.25295 -19.1543 509.67 0.173135 -0.562418 0.808523
3.98099 -19.3269 509.611 0.167406 -0.554716 0.815025
3.71549 -19.4861 509.548 0.154454 -0.542072 0.826015
3.43882 -19.6696 509.492 0.13214 -0.556275 0.820425
3.18696 -19.8004 509.421 0.102959 -0.571946 0.813804
2.92258 -19.9583 509.359 0.0905999 -0.570317 0.816413
2.67824 -20.0737 509.283 0.0615308 -0.562879 0.824246
2.42401 -20.2106 509.214 0.0637468 -0.56464 0.822872
2.17297 -20.341 509.144 0.0435347 -0.544077 0.837905
1.94209 -20.4284 509.061 -0.0449083 -0.498294 0.865844
1.68616 -20.5697 508.993 -0.0792812 -0.525706 0.846964
1.44539 -20.6791 508.917 -0.0276553 -0.58522 0.810403
1.21672 -20.7625 508.833 -0.0386616 -0.581928 0.812321
0.993105 -20.836 508.745 -0.0881173 -0.563515 0.821393
0.76424 -20.9191 508.662 -0.136802 -0.544866 0.827288
0.536092 -21.0026 508.578 -0.149902 -0.557493 0.816536
0.323972 -21.0492 508.484 -0.10511 -0.565429 0.818072
0.0950999 -21.1368 508.4 -0.170417 -0.528139 0.831881
-0.124502 -21.2013 508.311 -0.236373 -0.532335 0.812864
-0.333502 -21.2436 508.216 -0.173787 -0.546319 0.819349
-0.554523 -21.3122 508.128 -0.185559 -0.523983 0.83127
-0.775353 -21.3807 508.04 -0.231218 -0.533982 0.813266
-0.992224 -21.4407 507.949 -0.196956 -0.563652 0.802187
-1.20002 -21.4811 507.853 -0.271625 -0.560659 0.782229
-1.40567 -21.517 507.756 -0.362395 -0.553001 0.75024
-1.60906 -21.548 507.657 -0.342351 -0.608967 0.715511
-1.78527 -21.52 507.54 -0.285542 -0.63952 0.713778
-1.99683 -21.5693 507.447 -0.21487 -0.620524 0.754175
-2.2041 -21.6093 507.351 -0.377772 -0.550977 0.744119
-2.38164 -21.5843 507.236 -0.416958 -0.539136 0.731764
-2.58304 -21.6117 507.136 -0.313969 -0.578413 0.752902
-2.78175 -21.6333 507.034 -0.386703 -0.554282 0.737043
-2.96629 -21.6239 506.924 -0.406989 -0.557304 0.723721
-3.1431 -21.5975 506.808 -0.383501 -0.520753 0.762721
-3.34051 -21.6165 506.706 -0.410659 -0.477902 0.776511
-3.53592 -21.6313 506.603 -0.459489 -0.478789 0.748084
-3.72688 -21.6364 506.496 -0.483358 -0.499582 0.718876
-3.8983 -21.5983 506.377 -0.488723 -0.522315 0.698811
-4.08658 -21.5978 506.269 -0.496573 -0.517565 0.696808
-4.2565 -21.5563 506.149 -0.515394 -0.484788 0.706647
-4.42633 -21.5147 506.029 -0.549195 -0.457866 0.699102
-4.59776 -21.4769 505.91 -0.538238 -0.461366 0.705296
-4.79073 -21.4868 505.805 -0.535444 -0.467125 0.703629
-4.96484 -21.4551 505.688 -0.582118 -0.459846 0.670582
-5.13444 -21.4129 505.568 -0.616849 -0.44607 0.648475
-5.29764 -21.3567 505.443 -0.641552 -0.449203 0.621794
-5.45312 -21.2833 505.313 -0.630059 -0.449478 0.633241
-5.62253 -21.2406 505.193 -0.610469 -0.451863 0.650498
-5.79159 -21.1985 505.073 -0.640795 -0.459256 0.615196
-5.95712 -21.1458 504.949 -0.658063 -0.460266 0.59591
-6.11284 -21.0746 504.82 -0.615759 -0.475902 0.627979
-6.28249 -21.0317 504.699 -0.632963 -0.452165 0.628415
-6.4466 -20.9773 504.575 -0.760525 -0.407234 0.505728
-6.56648 -20.8227 504.421 -0.737426 -0.451542 0.502307
-6.73001 -20.7683 504.297 -0.609399 -0.498713 0.616375
-6.89943 -20.7254 504.176 -0.665159 -0.472851 0.577906
-7.04505 -20.6293 504.039 -0.751551 -0.417722 0.510567
-7.18302 -20.5158 503.897 -0.75679 -0.408643 0.510176
-7.34406 -20.4542 503.771 -0.765914 -0.407831 0.497041
-7.48032 -20.3366 503.628 -0.784971 -0.378436 0.490517
-7.61616 -20.218 503.484 -0.77952 -0.357335 0.514451
-7.77916 -20.1606 503.359 -0.811597 -0.36827 0.453527
-7.88109 -19.9649 503.191 -0.804285 -0.393658 0.44515
-8.03622 -19.8895 503.061 -0.791683 -0.387246 0.472524
-8.1761 -19.7794 502.919 -0.769281 -0.422331 0.479419
-8.31644 -19.6705 502.779 -0.789817 -0.373275 0.486677
-8.45427 -19.5552 502.635 -0.834994 -0.309985 0.454637
-8.57043 -19.3909 502.478 -0.887842 -0.272389 0.370864
-8.6747 -19.199 502.311 -0.902541 -0.27456 0.331719
-8.81396 -19.0867 502.169 -0.872515 -0.335722 0.354976
-8.91281 -18.882 501.998 -0.882723 -0.322538 0.341714
-9.03974 -18.7411 501.847 -0.893769 -0.31667 0.317643
-9.15725 -18.5791 501.69 -0.899641 -0.326164 0.290282
-9.26616 -18.397 501.527 -0.917276 -0.279838 0.283365
-9.362 -18.1829 501.351 -0.918309 -0.266712 0.292529
-9.48096 -18.0237 501.195 -0.90389 -0.308794 0.296023
-9.59783 -17.8581 501.036 -0.921145 -0.280534 0.2698
-9.68454 -17.623 500.855 -0.937962 -0.224871 0.263932
-9.78817 -17.4273 500.687 -0.944561 -0.231837 0.232502
-9.88344 -17.2114 500.512 -0.94378 -0.239985 0.227348
-9.97836 -16.9948 500.337 -0.967647 -0.174097 0.182617
-10.0473 -16.7177 500.143 -0.97612 -0.165217 0.141043
-10.1238 -16.4576 499.954 -0.95946 -0.197328 0.201243
-10.2186 -16.2393 499.778 -0.970724 -0.168787 0.170895
-10.2807 -15.945 499.579 -0.983885 -0.147624 0.100879
-10.3149 -15.5855 499.359 -0.982138 -0.142534 0.122835
-10.4287 -15.41 499.196 -0.994704 -0.0927118 0.0443625
-10.4089 -14.9241 498.936 -0.997385 -0.0644678 0.0326782
-10.4722 -14.6303 498.736 -0.993399 -0.0634513 0.0955666
-10.4965 -14.2455 498.508 -0.998366 -0.0429809 0.0376477
-10.5212 -13.8607 498.279 -0.997755 -0.0439009 -0.0505654
-10.5137 -13.4002 498.027 -0.990232 -0.0955239 -0.101568
-10.5636 -13.073 497.816 -0.987597 -0.0990882 -0.121797
-10.5594 -12.6185 497.565 -0.98345 -0.0666065 -0.168494
4.19797 -18.9744 509.812 0.156081 -0.554183 0.817631
3.94162 -19.1137 509.744 0.141939 -0.545352 0.826102
3.66557 -19.2955 509.687 0.172465 -0.552763 0.815297
3.39838 -19.4588 509.625 0.150314 -0.567184 0.809758
3.13225 -19.6201 509.563 0.102044 -0.577563 0.809943
2.889 -19.7328 509.487 0.0719467 -0.56657 0.820867
2.62934 -19.8811 509.421 0.0537265 -0.548518 0.834411
2.37982 -20.0079 509.349 0.025169 -0.551292 0.833932
2.1457 -20.1019 509.268 -0.01509 -0.562059 0.826959
1.90062 -20.2198 509.194 0.0253268 -0.559941 0.828145
1.64847 -20.3532 509.124 0.00646574 -0.539505 0.841958
1.41684 -20.4428 509.041 -0.0625329 -0.539462 0.839685
1.17706 -20.55 508.964 -0.0956918 -0.537199 0.83801
0.946253 -20.6383 508.882 -0.129129 -0.541 0.83105
0.725861 -20.7042 508.792 -0.117536 -0.553191 0.824721
0.497684 -20.7877 508.708 -0.139513 -0.55048 0.823109
0.271448 -20.8663 508.623 -0.162129 -0.557518 0.81418
0.0585129 -20.9179 508.529 -0.159236 -0.543021 0.824483
-0.165138 -20.9902 508.443 -0.224621 -0.5165 0.826301
-0.371577 -21.0274 508.345 -0.197449 -0.55682 0.806824
-0.596809 -21.1051 508.26 -0.156499 -0.557543 0.815263
-0.811288 -21.1597 508.168 -0.199739 -0.521736 0.829395
-1.02766 -21.2186 508.077 -0.219305 -0.527987 0.820448
-1.24331 -21.2761 507.986 -0.297832 -0.51002 0.806954
-1.43514 -21.2818 507.88 -0.320328 -0.490888 0.810197
-1.64732 -21.332 507.786 -0.354582 -0.484336 0.799806
-1.85216 -21.3664 507.688 -0.350503 -0.536711 0.767521
-2.04874 -21.3828 507.585 -0.31193 -0.593784 0.741701
-2.22988 -21.3655 507.472 -0.395214 -0.528937 0.75102
-2.43241 -21.3952 507.373 -0.375996 -0.544917 0.749462
-2.62586 -21.4051 507.268 -0.340779 -0.573531 0.744937
-2.81864 -21.4136 507.163 -0.387142 -0.53553 0.750552
-3.01336 -21.4265 507.059 -0.467471 -0.513302 0.719717
-3.19202 -21.4041 506.944 -0.437043 -0.510273 0.740686
-3.38916 -21.4225 506.842 -0.392378 -0.509096 0.766068
-3.57117 -21.4077 506.729 -0.416844 -0.524246 0.742568
-3.76034 -21.4087 506.622 -0.439414 -0.554227 0.706929
-3.95089 -21.4128 506.515 -0.487498 -0.542619 0.684039
-4.12096 -21.3718 506.395 -0.535111 -0.501917 0.679512
-4.29432 -21.3378 506.277 -0.540376 -0.4806 0.690664
-4.48236 -21.3368 506.169 -0.541505 -0.490727 0.682612
-4.65239 -21.2955 506.049 -0.521263 -0.51337 0.681716
-4.82485 -21.2604 505.931 -0.525291 -0.50105 0.687763
-4.99172 -21.2115 505.808 -0.58664 -0.466606 0.661916
-5.15918 -21.1651 505.687 -0.602041 -0.470942 0.644795
-5.32827 -21.1216 505.566 -0.642453 -0.470021 0.605256
-5.48773 -21.0568 505.439 -0.624776 -0.50915 0.591963
-5.65717 -21.0143 505.318 -0.578677 -0.530917 0.61908
-5.82487 -20.9681 505.197 -0.627673 -0.502799 0.594323
-5.97554 -20.8835 505.064 -0.649161 -0.502579 0.570968
-6.14444 -20.8398 504.943 -0.635983 -0.479241 0.604858
-6.30018 -20.7665 504.813 -0.631086 -0.444056 0.636038
-6.46651 -20.7172 504.69 -0.728997 -0.392522 0.560794
-6.61534 -20.6282 504.556 -0.737631 -0.430025 0.520557
-6.77538 -20.5642 504.429 -0.620229 -0.492955 0.610173
-6.93991 -20.5111 504.305 -0.691792 -0.424928 0.583832
-7.08194 -20.4065 504.166 -0.758474 -0.396683 0.517069
-7.23589 -20.3288 504.034 -0.753348 -0.413035 0.511731
-7.36574 -20.1967 503.887 -0.784096 -0.404056 0.471096
-7.49997 -20.0744 503.742 -0.805064 -0.346277 0.481627
-7.63905 -19.9628 503.6 -0.753565 -0.374446 0.540305
-7.78474 -19.8661 503.463 -0.793416 -0.379947 0.475533
-7.92934 -19.7668 503.325 -0.815441 -0.385176 0.432082
-8.06565 -19.6485 503.181 -0.768781 -0.436626 0.467262
-8.20647 -19.5404 503.041 -0.803994 -0.390647 0.448317
-8.33265 -19.3988 502.89 -0.822948 -0.352733 0.445348
-8.46061 -19.2612 502.74 -0.837319 -0.314078 0.447495
-8.59747 -19.1435 502.596 -0.878998 -0.285244 0.382097
-8.71664 -18.9854 502.44 -0.881666 -0.320892 0.345969
-8.83011 -18.814 502.28 -0.875729 -0.330001 0.352416
-8.96175 -18.6836 502.131 -0.880291 -0.348203 0.322247
-9.08243 -18.5287 501.977 -0.883382 -0.363878 0.295346
-9.19103 -18.3453 501.812 -0.915775 -0.282634 0.285437
-9.28783 -18.1356 501.641 -0.922846 -0.259086 0.285008
-9.40751 -17.9766 501.483 -0.903806 -0.31542 0.289212
-9.52415 -17.8111 501.325 -0.909947 -0.302376 0.283841
-9.61324 -17.583 501.148 -0.937112 -0.223631 0.267975
-9.71545 -17.3827 500.977 -0.932262 -0.249866 0.261639
-9.82963 -17.2105 500.815 -0.94165 -0.238863 0.237149
-9.90545 -16.9497 500.627 -0.955109 -0.192755 0.224974
-9.99483 -16.7198 500.448 -0.965235 -0.173228 0.195738
-10.0688 -16.454 500.257 -0.973415 -0.142089 0.179652
-10.1451 -16.1935 500.069 -0.961734 -0.172458 0.212901
-10.234 -15.9609 499.888 -0.969062 -0.178342 0.170624
-10.3068 -15.6908 499.696 -0.985274 -0.122976 0.118793
-10.3826 -15.4275 499.506 -0.984348 -0.127719 0.121436
-10.4097 -15.0506 499.281 -0.996213 -0.0680993 0.054052
-10.4335 -14.6653 499.052 -0.998389 -0.0483459 0.0296873
-10.4672 -14.3025 498.831 -0.994382 -0.0973342 0.0416087
-10.516 -13.974 498.62 -0.991449 -0.121738 -0.0469889
-10.5544 -13.621 498.402 -0.982719 -0.13591 -0.125664
-10.5954 -13.2732 498.184 -0.980372 -0.130638 -0.147662
-10.5848 -12.8043 497.929 -0.986448 -0.100117 -0.129992
-10.5935 -12.3795 497.688 -0.985521 -0.0582372 -0.159237
4.15559 -18.7674 509.947 0.124441 -0.531749 0.837709
3.88884 -18.929 509.884 0.14623 -0.529354 0.835704
3.60638 -19.1246 509.832 0.170046 -0.539044 0.824934
3.34041 -19.2853 509.769 0.125307 -0.538444 0.833292
3.07917 -19.4363 509.704 0.0711462 -0.563924 0.822757
2.83645 -19.5479 509.627 0.0583656 -0.58347 0.810035
2.5855 -19.6774 509.556 0.0704451 -0.575075 0.815062
2.33925 -19.7972 509.482 0.0434921 -0.569756 0.820662
2.077 -19.9518 509.418 0.0127479 -0.595288 0.803412
1.85421 -20.0217 509.33 0.0227739 -0.597833 0.801297
1.60622 -20.1461 509.257 0.00403882 -0.551151 0.834396
1.36325 -20.2601 509.182 -0.0667638 -0.543274 0.836897
1.14012 -20.3315 509.094 -0.0831019 -0.555775 0.827169
0.909425 -20.4182 509.011 -0.111904 -0.543051 0.83221
0.678832 -20.5065 508.929 -0.117126 -0.563042 0.818086
0.455434 -20.5801 508.841 -0.121184 -0.570425 0.812361
0.235115 -20.6456 508.752 -0.183828 -0.550786 0.814151
0.0232032 -20.6945 508.658 -0.18508 -0.562707 0.805671
-0.195837 -20.7574 508.569 -0.161077 -0.54289 0.824212
-0.431299 -20.8581 508.489 -0.201632 -0.542136 0.815741
-0.627488 -20.8726 508.385 -0.201885 -0.562604 0.801698
-0.849484 -20.9438 508.298 -0.177085 -0.551688 0.815035
-1.06921 -21.0096 508.209 -0.229777 -0.551154 0.802142
-1.2638 -21.0211 508.104 -0.309264 -0.539068 0.783429
-1.47139 -21.0617 508.008 -0.304736 -0.544752 0.781269
-1.67036 -21.0824 507.906 -0.262337 -0.553327 0.790574
-1.88345 -21.1348 507.813 -0.286429 -0.529103 0.798754
-2.09096 -21.175 507.717 -0.411649 -0.524017 0.745622
-2.26736 -21.1472 507.601 -0.354664 -0.591382 0.724211
-2.48446 -21.2089 507.511 -0.321708 -0.59996 0.732497
-2.66196 -21.1836 507.396 -0.399349 -0.530305 0.747861
-2.86429 -21.2131 507.296 -0.414548 -0.498472 0.761364
-3.0378 -21.1792 507.178 -0.4845 -0.479133 0.731909
-3.22158 -21.1679 507.067 -0.445963 -0.504916 0.739038
-3.40857 -21.1639 506.958 -0.368039 -0.516986 0.772835
-3.62516 -21.2252 506.868 -0.387783 -0.492374 0.779225
-3.81423 -21.2259 506.761 -0.467246 -0.473718 0.746507
-3.98501 -21.1862 506.641 -0.546207 -0.442484 0.711243
-4.15534 -21.1458 506.521 -0.55864 -0.502261 0.660042
-4.33135 -21.1173 506.405 -0.499277 -0.595186 0.629664
-4.50149 -21.0765 506.285 -0.500845 -0.567332 0.653673
-4.68379 -21.0624 506.173 -0.53124 -0.529026 0.661752
-4.85911 -21.0334 506.057 -0.547003 -0.5157 0.659425
-5.03871 -21.0126 505.942 -0.570261 -0.506272 0.64691
-5.20818 -20.9705 505.822 -0.583115 -0.511592 0.63107
-5.37761 -20.9284 505.702 -0.598819 -0.511908 0.615927
-5.54759 -20.8858 505.581 -0.612973 -0.519761 0.595074
-5.70795 -20.8242 505.455 -0.594254 -0.535589 0.600005
-5.87763 -20.7817 505.334 -0.617533 -0.520467 0.589718
-6.04649 -20.7378 505.213 -0.675445 -0.516011 0.526789
-6.1828 -20.621 505.071 -0.674174 -0.483642 0.558194
-6.35023 -20.574 504.949 -0.650581 -0.451664 0.610528
-6.50488 -20.498 504.818 -0.684688 -0.436946 0.583336
-6.66029 -20.4238 504.688 -0.718103 -0.42619 0.550173
-6.80142 -20.3174 504.548 -0.67276 -0.46576 0.574858
-6.96642 -20.2646 504.424 -0.692046 -0.439545 0.572602
-7.11573 -20.1765 504.29 -0.745193 -0.399219 0.534146
-7.25922 -20.0751 504.152 -0.74823 -0.384138 0.540915
-7.41887 -20.0101 504.024 -0.823953 -0.365395 0.433115
-7.52562 -19.8254 503.86 -0.800337 -0.434318 0.413314
-7.69347 -19.7788 503.739 -0.724519 -0.466807 0.507113
-7.84077 -19.6855 503.602 -0.776313 -0.422362 0.46792
-7.9704 -19.5521 503.454 -0.793457 -0.411832 0.44813
-8.11482 -19.4521 503.316 -0.794587 -0.396004 0.46023
-8.24797 -19.3264 503.17 -0.826219 -0.381444 0.414563
-8.37741 -19.1921 503.021 -0.846759 -0.366796 0.385305
-8.50538 -19.0543 502.871 -0.840187 -0.357881 0.407439
-8.63043 -18.9095 502.719 -0.85444 -0.361676 0.372991
-8.75405 -18.7615 502.566 -0.879004 -0.349025 0.324858
-8.87698 -18.6118 502.413 -0.859583 -0.379055 0.342686
-9.00899 -18.4816 502.264 -0.866685 -0.375091 0.328884
-9.11729 -18.2982 502.101 -0.914061 -0.286374 0.287197
-9.21447 -18.0886 501.929 -0.92362 -0.2597 0.281927
-9.33114 -17.9234 501.77 -0.903311 -0.304095 0.30258
-9.44883 -17.7602 501.612 -0.907649 -0.293327 0.300222
-9.5402 -17.5364 501.435 -0.934217 -0.238539 0.265211
-9.64392 -17.3404 501.267 -0.929113 -0.268432 0.254349
-9.7613 -17.1759 501.108 -0.932701 -0.278255 0.229439
-9.83398 -16.9093 500.92 -0.953304 -0.220582 0.206288
-9.93455 -16.7039 500.747 -0.95734 -0.192783 0.215257
-10.0198 -16.4642 500.564 -0.971507 -0.175373 0.159432
-10.0809 -16.1676 500.364 -0.972182 -0.193337 0.132225
-10.1778 -15.9545 500.19 -0.957792 -0.239376 0.159162
-10.2688 -15.7269 500.012 -0.974642 -0.145622 0.169905
-10.3101 -15.3837 499.797 -0.979323 -0.0795459 0.186005
-10.3681 -15.0786 499.594 -0.985395 -0.0759161 0.152423
-10.4296 -14.7812 499.394 -0.996868 -0.0643357 0.0459824
-10.4516 -14.3912 499.164 -0.992997 -0.115149 -0.0264298
-10.5148 -14.0967 498.964 -0.976173 -0.210405 -0.0530737
-10.593 -13.8364 498.774 -0.974636 -0.197345 -0.105543
-10.6083 -13.429 498.539 -0.985323 -0.131314 -0.109063
-10.6167 -13.0049 498.298 -0.991489 -0.0820283 -0.101097
-10.6192 -12.566 498.053 -0.995435 -0.0558009 -0.077435
-10.6398 -12.1689 497.82 -0.989415 -0.0563967 -0.133707
4.37486 -18.41 510.148 0.165177 -0.53632 0.827694
4.11908 -18.5478 510.078 0.141374 -0.549431 0.823492
3.84227 -18.7309 510.022 0.180547 -0.550247 0.815249
3.57447 -18.8952 509.96 0.149709 -0.529556 0.83496
3.30766 -19.0577 509.898 0.116054 -0.507737 0.85366
3.0311 -19.2416 509.842 0.0625485 -0.526258 0.848021
2.78646 -19.3573 509.766 0.0332493 -0.558048 0.829142
2.53204 -19.4943 509.697 0.0469448 -0.560123 0.827078
2.28454 -19.6168 509.624 0.0519886 -0.550216 0.833403
2.03501 -19.744 509.552 -0.0119577 -0.551083 0.834365
1.80227 -19.8354 509.47 -0.0559612 -0.573241 0.817474
1.57108 -19.9236 509.387 -0.00544746 -0.567326 0.823475
1.32971 -20.0341 509.31 -0.0507364 -0.5479 0.835004
1.09229 -20.1363 509.231 -0.0950016 -0.567771 0.817686
0.868989 -20.2083 509.143 -0.0680779 -0.575711 0.814814
0.628556 -20.319 509.067 -0.0921473 -0.590589 0.801694
0.415629 -20.3675 508.973 -0.136252 -0.596521 0.790947
0.188329 -20.4483 508.888 -0.155899 -0.575331 0.802926
-0.031327 -20.5138 508.799 -0.196208 -0.588332 0.784454
-0.236429 -20.5473 508.7 -0.13276 -0.599434 0.789337
-0.459914 -20.6212 508.613 -0.174185 -0.546116 0.8194
-0.680932 -20.6907 508.525 -0.222322 -0.546631 0.807321
-0.893603 -20.7403 508.432 -0.172243 -0.56586 0.80631
-1.11101 -20.8007 508.341 -0.242927 -0.552334 0.797442
-1.31912 -20.842 508.245 -0.286432 -0.576696 0.7651
-1.522 -20.8716 508.146 -0.284333 -0.569806 0.771022
-1.72807 -20.9079 508.048 -0.289227 -0.561199 0.775502
-1.92463 -20.9246 507.945 -0.275621 -0.545273 0.79165
-2.13157 -20.9635 507.848 -0.336267 -0.52388 0.782607
-2.33933 -21.0045 507.752 -0.361122 -0.551986 0.7516
-2.51944 -20.9849 507.638 -0.428803 -0.524525 0.735528
-2.69776 -20.9613 507.523 -0.433663 -0.541272 0.720389
-2.88761 -20.9632 507.416 -0.404037 -0.570051 0.7154
-3.07944 -20.9695 507.31 -0.440714 -0.54949 0.709811
-3.27345 -20.9808 507.205 -0.420576 -0.571675 0.704488
-3.45786 -20.9709 507.094 -0.3618 -0.613913 0.701578
-3.63883 -20.9535 506.981 -0.373759 -0.567786 0.733432
-3.82367 -20.9447 506.871 -0.490307 -0.464964 0.737162
-4.00804 -20.935 506.76 -0.469274 -0.461963 0.752577
-4.2225 -20.992 506.669 -0.465178 -0.503794 0.727874
-4.39853 -20.964 506.553 -0.548577 -0.530043 0.646619
-4.56835 -20.9221 506.432 -0.54436 -0.547019 0.635958
-4.73819 -20.8799 506.312 -0.539308 -0.544452 0.642432
-4.90528 -20.8326 506.19 -0.549537 -0.526493 0.648702
-5.07505 -20.7904 506.07 -0.560406 -0.507753 0.654318
-5.24486 -20.7482 505.949 -0.582721 -0.486702 0.650813
-5.41431 -20.7062 505.829 -0.58509 -0.51501 0.626446
-5.58024 -20.6554 505.706 -0.597028 -0.541001 0.592347
-5.74942 -20.6128 505.585 -0.603967 -0.534653 0.591075
-5.91267 -20.5554 505.46 -0.608044 -0.479921 0.632423
-6.07699 -20.5017 505.336 -0.719771 -0.377284 0.582741
-6.21248 -20.3826 505.193 -0.720407 -0.402626 0.564718
-6.37765 -20.3302 505.069 -0.652415 -0.468109 0.59601
-6.5327 -20.2551 504.939 -0.682195 -0.444849 0.580276
-6.69415 -20.1943 504.813 -0.69506 -0.433426 0.573615
-6.8556 -20.1334 504.686 -0.695968 -0.429923 0.575147
-7.00715 -20.0502 504.554 -0.712998 -0.420548 0.561047
-7.15038 -19.9482 504.415 -0.758445 -0.38987 0.522266
-7.29434 -19.8477 504.277 -0.727987 -0.397631 0.558502
-7.44761 -19.7681 504.145 -0.776567 -0.39394 0.491686
-7.59541 -19.6761 504.009 -0.805801 -0.4312 0.405896
-7.71689 -19.5244 503.855 -0.738044 -0.507542 0.444626
-7.86787 -19.4393 503.722 -0.775526 -0.448853 0.443948
-8.00653 -19.3262 503.58 -0.80567 -0.421181 0.416536
-8.13897 -19.1988 503.433 -0.79053 -0.41056 0.454426
-8.28657 -19.1057 503.297 -0.82692 -0.362767 0.429654
-8.40551 -18.9473 503.141 -0.856403 -0.341925 0.386862
-8.53155 -18.8048 502.99 -0.82867 -0.338745 0.445598
-8.68012 -18.7135 502.854 -0.849005 -0.340602 0.403957
-8.79273 -18.5401 502.693 -0.869493 -0.333562 0.364305
-8.92288 -18.4068 502.546 -0.858864 -0.342492 0.380855
-9.03936 -18.2408 502.385 -0.896936 -0.291767 0.332231
-9.14098 -18.0416 502.217 -0.921744 -0.252944 0.293951
-9.25519 -17.8706 502.056 -0.911599 -0.290127 0.291227
-9.36624 -17.6925 501.894 -0.907233 -0.302174 0.292607
-9.46669 -17.4894 501.723 -0.922347 -0.266868 0.279387
-9.57993 -17.3158 501.563 -0.923633 -0.276442 0.265483
-9.69258 -17.1418 501.403 -0.922248 -0.287539 0.258418
-9.78386 -16.9141 501.221 -0.945705 -0.226767 0.23285
