-1.903 -61.3658 478.366 -0.654808 -0.490303 0.575177
-2.13256 -61.1857 478.235 -0.652136 -0.494953 0.57423
-2.36163 -61.0105 478.106 -0.668386 -0.481229 0.567167
-2.58887 -60.8491 477.985 -0.674011 -0.479065 0.562322
-2.81441 -60.7007 477.871 -0.697409 -0.473041 0.53838
-3.04971 -60.4872 477.721 -0.728694 -0.441539 0.523496
-3.28657 -60.2647 477.567 -0.723433 -0.423175 0.545497
-3.51917 -60.0727 477.429 -0.735748 -0.43024 0.523038
-3.7628 -59.8079 477.251 -0.782341 -0.396413 0.480416
-4.01025 -59.5195 477.061 -0.806414 -0.392849 0.442001
-4.26231 -59.2024 476.854 -0.811903 -0.379489 0.443624
-4.50974 -58.9184 476.666 -0.821252 -0.350486 0.450227
-4.76811 -58.5639 476.439 -0.831707 -0.336483 0.441635
-5.0289 -58.1959 476.205 -0.842934 -0.305044 0.443183
-5.29164 -57.8176 475.965 -0.868616 -0.303904 0.391342
-5.56063 -57.4009 475.705 -0.867793 -0.345814 0.356859
15.6664 -57.4272 479.428 0.740322 -0.260152 0.619875
15.4879 -57.6666 479.524 0.687702 -0.27923 0.670147
15.3059 -57.87 479.6 0.65537 -0.29846 0.693838
15.126 -58.0916 479.685 0.673455 -0.317126 0.667749
14.9458 -58.3087 479.769 0.690908 -0.335287 0.640491
14.7672 -58.5395 479.859 0.649334 -0.358554 0.670675
14.5817 -58.7025 479.914 0.618944 -0.373175 0.691122
14.401 -58.909 479.991 0.641529 -0.382915 0.664693
14.2171 -59.0844 480.052 0.628332 -0.404595 0.664456
14.0328 -59.2537 480.11 0.602582 -0.410428 0.68443
13.8485 -59.4225 480.168 0.622305 -0.393034 0.676949
13.6665 -59.6114 480.236 0.609991 -0.38825 0.690777
13.4817 -59.7718 480.289 0.53319 -0.393607 0.748854
13.2957 -59.92 480.335 0.514956 -0.402523 0.756833
13.1112 -60.0814 480.389 0.520538 -0.428201 0.738704
12.9228 -60.2059 480.423 0.517102 -0.428577 0.740897
12.7383 -60.3652 480.476 0.509203 -0.421618 0.750301
12.551 -60.4989 480.518 0.484834 -0.432725 0.760056
12.3653 -60.6433 480.561 0.469722 -0.445773 0.762002
12.1776 -60.7698 480.595 0.462038 -0.461645 0.757235
11.9894 -60.8908 480.626 0.430968 -0.463343 0.774325
11.8033 -61.0302 480.668 0.406561 -0.487005 0.773003
11.6125 -61.1263 480.687 0.425749 -0.49817 0.755357
11.4238 -61.2411 480.716 0.412668 -0.487141 0.769674
11.234 -61.3446 480.738 0.337795 -0.495531 0.800214
11.0426 -61.4339 480.753 0.379679 -0.487471 0.786267
10.8565 -61.5695 480.793 0.385946 -0.483276 0.785805
10.6655 -61.6601 480.809 0.329583 -0.480391 0.812772
10.4749 -61.7549 480.827 0.307015 -0.453615 0.836645
10.2845 -61.8505 480.846 0.267632 -0.48355 0.833398
10.0929 -61.9347 480.858 0.261729 -0.521883 0.811872
9.89881 -61.9971 480.859 0.249338 -0.519685 0.817165
9.70835 -62.0907 480.876 0.318758 -0.517497 0.794097
9.51702 -62.1761 480.889 0.263558 -0.490231 0.830789
9.32502 -62.2554 480.899 0.218856 -0.478214 0.850537
9.13334 -62.337 480.91 0.228781 -0.468903 0.853106
8.94235 -62.424 480.924 0.158747 -0.518121 0.840446
8.74555 -62.4616 480.911 0.169836 -0.555376 0.814072
8.55212 -62.5273 480.914 0.145112 -0.516613 0.843832
8.35858 -62.591 480.915 0.10427 -0.551469 0.827653
8.16161 -62.6286 480.902 0.174241 -0.580311 0.795537
7.96831 -62.6909 480.903 0.175452 -0.533139 0.827635
7.77267 -62.7431 480.898 0.127607 -0.514018 0.848234
7.57939 -62.8056 480.899 0.0825967 -0.530698 0.843526
7.38205 -62.8386 480.884 0.0401083 -0.548893 0.83493
7.1846 -62.8696 480.867 0.0458901 -0.554948 0.830619
6.98783 -62.9064 480.854 0.0330936 -0.551907 0.833249
6.79024 -62.9366 480.838 0.0390955 -0.551786 0.833069
6.59421 -62.9762 480.826 0.0273264 -0.551049 0.834025
6.39622 -63.0062 480.809 0.0145529 -0.564151 0.825543
6.1989 -63.0359 480.792 -0.0359461 -0.57938 0.814265
5.99953 -63.0545 480.769 -0.0454347 -0.599281 0.799249
5.80069 -63.0779 480.749 -0.018626 -0.592589 0.80529
5.60137 -63.0881 480.722 -0.0471473 -0.571695 0.81911
5.40237 -63.1105 480.701 -0.100473 -0.566782 0.817718
5.20093 -63.1106 480.668 -0.0723672 -0.578702 0.812322
5.00223 -63.1324 480.646 -0.025318 -0.583373 0.81181
4.80136 -63.1374 480.616 -0.143882 -0.558009 0.817266
4.59977 -63.137 480.583 -0.176357 -0.556825 0.811692
4.39839 -63.1384 480.55 -0.16498 -0.56702 0.807013
4.19304 -63.1096 480.502 -0.140104 -0.563772 0.813961
3.9919 -63.1134 480.471 -0.212893 -0.56386 0.797959
3.78492 -63.0729 480.416 -0.226735 -0.569333 0.790222
3.58364 -63.0762 480.385 -0.145795 -0.569932 0.808654
3.37871 -63.0522 480.338 -0.251731 -0.538125 0.804396
3.17294 -63.0222 480.289 -0.260924 -0.53868 0.801088
2.97157 -63.0257 480.258 -0.240037 -0.574275 0.782682
2.76205 -62.9684 480.194 -0.293473 -0.538438 0.78991
2.55485 -62.9291 480.139 -0.278553 -0.516729 0.809567
2.35244 -62.9259 480.105 -0.280357 -0.561292 0.778685
2.14357 -62.8751 480.044 -0.33523 -0.553337 0.762521
1.93638 -62.8374 479.99 -0.33548 -0.56186 0.756153
1.72661 -62.781 479.927 -0.373062 -0.564116 0.736612
1.51452 -62.7085 479.854 -0.35246 -0.523602 0.775637
1.30844 -62.6785 479.807 -0.372177 -0.521882 0.767544
1.09585 -62.6056 479.732 -0.409324 -0.560578 0.719865
0.885762 -62.5471 479.669 -0.413682 -0.572877 0.707586
0.671995 -62.4677 479.591 -0.474503 -0.536032 0.698223
0.457608 -62.3809 479.512 -0.474568 -0.522006 0.708728
0.243231 -62.2974 479.432 -0.455519 -0.532705 0.713251
0.0283873 -62.2101 479.352 -0.483969 -0.522887 0.701686
-0.187619 -62.1155 479.267 -0.504788 -0.515234 0.69262
-0.403109 -62.0266 479.185 -0.509386 -0.509579 0.693437
-0.622923 -61.9042 479.087 -0.538108 -0.488049 0.687203
-0.841191 -61.7979 478.995 -0.556672 -0.506972 0.6581
-1.05776 -61.703 478.91 -0.567813 -0.514121 0.642859
-1.28204 -61.5555 478.796 -0.557896 -0.494527 0.666479
-1.50082 -61.4466 478.704 -0.576745 -0.492603 0.651695
-1.72625 -61.2931 478.587 -0.618522 -0.455847 0.640027
-1.95014 -61.1514 478.477 -0.641288 -0.435975 0.631408
-2.17538 -61.0016 478.362 -0.653932 -0.463136 0.598229
-2.40047 -60.8541 478.249 -0.667373 -0.473614 0.57472
-2.63248 -60.6604 478.11 -0.665681 -0.44415 0.599666
-2.86317 -60.4754 477.977 -0.700422 -0.413062 0.582055
-3.10279 -60.2349 477.812 -0.737441 -0.418453 0.530167
-3.33793 -60.0248 477.664 -0.715041 -0.421535 0.557696
-3.57145 -59.8272 477.523 -0.734806 -0.377578 0.563467
-3.81421 -59.5689 477.349 -0.775906 -0.386472 0.498608
-4.05381 -59.3338 477.188 -0.812384 -0.394353 0.429555
-4.31194 -58.9765 476.96 -0.824359 -0.378092 0.421283
-4.56489 -58.6563 476.752 -0.830432 -0.368392 0.417935
-4.82528 -58.289 476.519 -0.848405 -0.352392 0.395004
-5.08697 -57.9158 476.282 -0.847434 -0.33491 0.411936
-5.34811 -57.5488 476.049 -0.855228 -0.316999 0.409995
15.4471 -57.457 479.638 0.701475 -0.30119 0.645924
15.2682 -57.6913 479.731 0.699479 -0.322111 0.637944
15.0888 -57.9181 479.819 0.702492 -0.319418 0.635985
14.9095 -58.1451 479.907 0.681031 -0.328159 0.654606
14.7254 -58.3222 479.969 0.636681 -0.3461 0.689095
14.5443 -58.5276 480.046 0.636713 -0.362133 0.680776
14.3616 -58.7158 480.114 0.640742 -0.360945 0.67762
14.1801 -58.9141 480.187 0.5917 -0.362058 0.720281
13.9952 -59.0791 480.243 0.586415 -0.391891 0.708899
13.8119 -59.257 480.305 0.6089 -0.392423 0.68938
13.6275 -59.425 480.364 0.580399 -0.40573 0.70606
13.4414 -59.572 480.408 0.540778 -0.40684 0.736234
13.2574 -59.7402 480.465 0.545813 -0.400438 0.736028
13.0719 -59.8923 480.514 0.510593 -0.413038 0.754118
12.8857 -60.0386 480.561 0.50475 -0.429313 0.748944
12.6992 -60.179 480.602 0.516018 -0.435413 0.737659
12.5131 -60.3225 480.646 0.489053 -0.427087 0.760542
12.3261 -60.457 480.685 0.477668 -0.432674 0.764608
12.1398 -60.5969 480.727 0.442951 -0.453677 0.773286
11.9508 -60.7114 480.755 0.442805 -0.454283 0.773014
11.7631 -60.8367 480.79 0.406872 -0.43806 0.801597
11.5742 -60.9506 480.818 0.386362 -0.459337 0.799834
11.3864 -61.0731 480.851 0.396707 -0.509272 0.763718
11.1959 -61.1702 480.867 0.358378 -0.519254 0.775848
11.0067 -61.2803 480.896 0.389742 -0.515018 0.763451
10.8157 -61.3723 480.911 0.364332 -0.504168 0.782992
10.6248 -61.4647 480.929 0.29577 -0.510616 0.807336
10.4317 -61.5378 480.936 0.349055 -0.497729 0.793994
10.2459 -61.6744 480.976 0.31311 -0.477783 0.820784
10.0516 -61.7352 480.976 0.245937 -0.500961 0.829791
9.86265 -61.8429 481.001 0.271682 -0.507279 0.817836
9.66943 -61.9129 481.006 0.263942 -0.533499 0.803563
9.47631 -61.9834 481.011 0.243587 -0.527399 0.81395
9.28316 -62.0534 481.015 0.208054 -0.472976 0.856158
9.08908 -62.1151 481.016 0.268257 -0.464976 0.843703
8.9012 -62.2289 481.044 0.203019 -0.490438 0.847499
8.70522 -62.2739 481.035 0.0996937 -0.524661 0.845454
8.50926 -62.3189 481.026 0.189603 -0.545546 0.816352
8.31797 -62.4028 481.039 0.156332 -0.521624 0.83873
8.12303 -62.4559 481.034 0.0958908 -0.530767 0.842075
7.92604 -62.4918 481.021 0.135122 -0.538704 0.831589
7.73286 -62.5591 481.024 0.146415 -0.54434 0.825988
7.53679 -62.6023 481.014 0.10114 -0.547479 0.830685
7.34166 -62.6532 481.009 0.0472106 -0.538128 0.84154
7.14454 -62.6876 480.994 0.0368279 -0.546651 0.83655
6.94779 -62.7251 480.982 0.0329606 -0.54579 0.837273
6.75041 -62.7573 480.966 0.0340411 -0.545996 0.837096
6.55344 -62.7929 480.952 0.0403602 -0.541967 0.83943
6.35681 -62.8311 480.94 0.0196276 -0.5366 0.843608
6.15927 -62.8608 480.923 -0.0174323 -0.54222 0.840055
5.96013 -62.8803 480.9 -0.057224 -0.555768 0.829366
5.75896 -62.8828 480.869 -0.0587914 -0.552077 0.831718
5.56094 -62.9093 480.85 -0.0665854 -0.540418 0.838758
5.35923 -62.908 480.816 -0.0848481 -0.538406 0.838403
5.16053 -62.9301 480.795 -0.0639312 -0.544274 0.836468
4.961 -62.9458 480.771 -0.0809077 -0.557154 0.826458
4.75967 -62.9476 480.739 -0.148359 -0.556833 0.817268
4.55571 -62.9293 480.696 -0.162838 -0.550135 0.819045
4.35324 -62.9228 480.659 -0.167881 -0.556713 0.813564
4.15182 -62.9282 480.629 -0.14277 -0.586074 0.79758
3.95232 -62.9381 480.602 -0.204135 -0.595714 0.776823
3.74544 -62.9022 480.549 -0.217434 -0.626703 0.748309
3.54325 -62.899 480.514 -0.190476 -0.619521 0.76152
3.33766 -62.8703 480.466 -0.249375 -0.589131 0.768594
3.1332 -62.8506 480.422 -0.21016 -0.622964 0.753491
2.92816 -62.827 480.376 -0.285103 -0.600711 0.746902
2.71842 -62.7685 480.311 -0.319881 -0.593036 0.738908
2.51457 -62.7546 480.271 -0.218846 -0.589044 0.777904
2.31001 -62.7358 480.227 -0.289018 -0.566274 0.771883
2.09897 -62.6716 480.157 -0.325008 -0.562117 0.760522
1.89425 -62.6503 480.115 -0.329827 -0.548339 0.768465
1.68316 -62.5848 480.046 -0.417067 -0.515937 0.748241
1.46985 -62.5037 479.969 -0.353143 -0.511782 0.783179
1.26444 -62.481 479.924 -0.321817 -0.517704 0.792727
1.05568 -62.4345 479.865 -0.392404 -0.522848 0.756735
0.843758 -62.3644 479.795 -0.444902 -0.530068 0.721865
0.627266 -62.2676 479.706 -0.486342 -0.504305 0.713546
0.411327 -62.1717 479.62 -0.465288 -0.516633 0.718747
0.199434 -62.1017 479.552 -0.462461 -0.53003 0.710773
-0.0158992 -62.0115 479.47 -0.489226 -0.522078 0.698636
-0.231578 -61.917 479.388 -0.509588 -0.51003 0.692957
-0.451291 -61.803 479.288 -0.526032 -0.499996 0.687965
-0.6671 -61.7091 479.206 -0.519897 -0.522634 0.675693
-0.882526 -61.6218 479.126 -0.549734 -0.523209 0.651188
-1.10855 -61.4609 479.005 -0.583693 -0.485219 0.651049
-1.32737 -61.3518 478.913 -0.556448 -0.494544 0.667676
-1.54528 -61.25 478.824 -0.605814 -0.505717 0.614198
-1.77487 -61.0679 478.692 -0.638505 -0.490521 0.593044
-1.99773 -60.934 478.586 -0.624035 -0.483689 0.613698
-2.22467 -60.773 478.465 -0.641722 -0.46207 0.612115
-2.45319 -60.6025 478.339 -0.683705 -0.438175 0.583567
-2.68922 -60.3838 478.186 -0.678313 -0.418634 0.603852
-2.91248 -60.2503 478.081 -0.687819 -0.413947 0.596282
-3.1457 -60.052 477.94 -0.739465 -0.416332 0.529017
-3.38621 -59.8058 477.773 -0.73912 -0.406957 0.536738
-3.62735 -59.5572 477.604 -0.730088 -0.419625 0.539339
-3.85612 -59.3939 477.482 -0.771414 -0.436487 0.463033
-4.11074 -59.0584 477.266 -0.815893 -0.384889 0.431484
-4.36011 -58.7604 477.071 -0.82665 -0.373139 0.421208
-4.61349 -58.4379 476.862 -0.834621 -0.372013 0.406219
-4.86951 -58.1003 476.645 -0.851935 -0.334249 0.403094
-5.14135 -57.6603 476.372 -0.852438 -0.328977 0.406354
-5.40062 -57.3064 476.146 -0.850834 -0.359821 0.382897
15.4113 -57.2973 479.78 0.732494 -0.323244 0.599137
15.2318 -57.5258 479.869 0.710634 -0.340247 0.615818
15.0493 -57.7221 479.941 0.701559 -0.327297 0.633003
14.8707 -57.956 480.033 0.670383 -0.328268 0.665452
14.6888 -58.1556 480.107 0.646878 -0.337406 0.683891
14.5085 -58.37 480.189 0.62875 -0.34733 0.695726
14.3226 -58.5273 480.239 0.601923 -0.345835 0.719782
14.1402 -58.7172 480.308 0.606002 -0.341024 0.718655
13.9578 -58.9052 480.376 0.585271 -0.365294 0.723891
13.7733 -59.0726 480.432 0.603224 -0.389532 0.695978
13.5909 -59.259 480.499 0.572117 -0.431203 0.697672
13.404 -59.3995 480.539 0.559328 -0.44789 0.697529
13.2192 -59.5619 480.596 0.55837 -0.43352 0.707307
13.0323 -59.7014 480.637 0.528508 -0.417504 0.739168
12.8479 -59.8638 480.693 0.509639 -0.414243 0.754103
12.661 -60 480.73 0.488352 -0.432234 0.758081
12.474 -60.1366 480.772 0.492732 -0.433326 0.754615
12.288 -60.2803 480.814 0.483402 -0.431325 0.761762
12.1007 -60.4115 480.853 0.440079 -0.446795 0.778913
11.9116 -60.5261 480.882 0.408606 -0.464858 0.78546
11.7222 -60.6366 480.908 0.430823 -0.452909 0.780554
11.5362 -60.7766 480.95 0.445575 -0.444716 0.776975
11.3492 -60.9067 480.987 0.374126 -0.474424 0.796838
11.1569 -60.9896 480.998 0.352548 -0.482021 0.802101
10.9685 -61.1066 481.031 0.355369 -0.498192 0.790897
10.7768 -61.1922 481.041 0.337955 -0.496335 0.799649
10.5892 -61.3143 481.076 0.29954 -0.501256 0.811799
10.3957 -61.3839 481.078 0.312667 -0.514145 0.798683
10.2042 -61.4711 481.092 0.317276 -0.4812 0.81718
10.0137 -61.5662 481.11 0.264381 -0.499859 0.824769
9.82005 -61.633 481.113 0.300346 -0.500252 0.812121
9.63196 -61.7477 481.142 0.238028 -0.507916 0.827867
9.43658 -61.7992 481.137 0.163712 -0.556132 0.81481
9.24034 -61.8432 481.128 0.246846 -0.545303 0.801069
9.0539 -61.9704 481.163 0.307641 -0.540187 0.783297
8.85833 -62.0195 481.156 0.228422 -0.524582 0.820145
8.66718 -62.1057 481.17 0.151429 -0.508418 0.847691
8.47317 -62.1674 481.17 0.146585 -0.550078 0.822148
8.27582 -62.201 481.155 0.15446 -0.534499 0.830935
8.08204 -62.2642 481.156 0.117607 -0.528081 0.841011
7.88723 -62.3186 481.153 0.150284 -0.551858 0.820285
7.6942 -62.3875 481.157 0.132533 -0.529501 0.837892
7.4976 -62.426 481.144 0.0630763 -0.503595 0.861634
7.30041 -62.462 481.131 0.0512356 -0.516486 0.854762
7.10347 -62.4973 481.117 0.0325203 -0.536702 0.843145
6.9058 -62.5281 481.101 0.0317702 -0.537873 0.842427
6.70903 -62.5649 481.087 0.0299535 -0.545735 0.837422
6.51123 -62.5949 481.071 0.0303779 -0.551953 0.833321
6.31408 -62.6246 481.054 0.021386 -0.54556 0.837799
6.11575 -62.6546 481.037 -0.00676513 -0.539534 0.841936
5.91734 -62.6822 481.019 -0.0632691 -0.551017 0.832092
5.71786 -62.692 480.991 -0.0714815 -0.580216 0.81132
5.5172 -62.702 480.963 -0.0657744 -0.581508 0.810877
5.31797 -62.7203 480.94 -0.0663432 -0.587247 0.806684
5.11808 -62.7336 480.914 -0.042519 -0.583813 0.810774
4.91912 -62.7542 480.892 -0.0926491 -0.534275 0.840218
4.71738 -62.7532 480.859 -0.161526 -0.521761 0.83766
4.51532 -62.7501 480.824 -0.154131 -0.556287 0.816571
4.31507 -62.7612 480.797 -0.125582 -0.57134 0.811049
4.11283 -62.7572 480.762 -0.136789 -0.556955 0.819201
3.90935 -62.7438 480.722 -0.166799 -0.56035 0.811286
3.70905 -62.7551 480.695 -0.22898 -0.585337 0.777785
3.49984 -62.6988 480.631 -0.234386 -0.565882 0.790469
3.298 -62.699 480.598 -0.209071 -0.53754 0.816909
3.09403 -62.6834 480.557 -0.241902 -0.558199 0.793661
2.88735 -62.6477 480.505 -0.293659 -0.569244 0.767936
2.68194 -62.6221 480.458 -0.326267 -0.595307 0.734275
2.46953 -62.5446 480.383 -0.249571 -0.559003 0.790715
2.26859 -62.5511 480.355 -0.292895 -0.512182 0.807392
2.05745 -62.4865 480.285 -0.340788 -0.535841 0.772488
1.84996 -62.4474 480.231 -0.362309 -0.512919 0.778233
1.63541 -62.3569 480.149 -0.423757 -0.502753 0.753438
1.42656 -62.3091 480.09 -0.347862 -0.538539 0.767442
1.21778 -62.2623 480.031 -0.313427 -0.559639 0.767181
1.00889 -62.2152 479.973 -0.377755 -0.513859 0.770227
0.79708 -62.1425 479.904 -0.460565 -0.46666 0.755055
0.580899 -62.0457 479.817 -0.475714 -0.502779 0.72174
0.370338 -61.9922 479.752 -0.453509 -0.542546 0.707088
0.154086 -61.895 479.666 -0.468175 -0.537536 0.701332
-0.0600079 -61.8141 479.589 -0.497887 -0.512993 0.699247
-0.278815 -61.6992 479.495 -0.516914 -0.506019 0.690467
-0.493314 -61.6184 479.417 -0.507083 -0.525186 0.683408
-0.710029 -61.5185 479.332 -0.512754 -0.516097 0.686096
-0.930263 -61.3967 479.233 -0.575253 -0.490671 0.654466
-1.15204 -61.2702 479.129 -0.581783 -0.499257 0.642083
-1.37072 -61.1621 479.037 -0.537396 -0.515755 0.667235
-1.59063 -61.0456 478.941 -0.606086 -0.469455 0.642084
-1.81688 -60.8888 478.822 -0.640406 -0.452237 0.620774
-2.04293 -60.7331 478.704 -0.633531 -0.453496 0.626881
-2.27057 -60.5678 478.581 -0.650926 -0.44986 0.611491
-2.4971 -60.4115 478.463 -0.701219 -0.446256 0.55601
-2.73372 -60.1873 478.308 -0.686883 -0.44752 0.57264
-2.9611 -60.028 478.188 -0.682199 -0.44936 0.576784
-3.19966 -59.7939 478.028 -0.740709 -0.394795 0.543587
-3.43904 -59.5561 477.865 -0.728594 -0.391657 0.561921
-3.66577 -59.4055 477.75 -0.70898 -0.437077 0.553454
-3.90554 -59.1684 477.588 -0.779102 -0.381768 0.497246
-4.15936 -58.8388 477.376 -0.812296 -0.354423 0.463207
-4.40633 -58.5574 477.189 -0.82417 -0.368213 0.430306
-4.66985 -58.1679 476.944 -0.844275 -0.352867 0.403341
-4.93312 -57.7829 476.702 -0.856428 -0.344929 0.38413
-5.19494 -57.4101 476.465 -0.846941 -0.363002 0.388486
-5.44274 -57.1325 476.281 -0.839485 -0.371474 0.396576
15.3749 -57.1311 479.918 0.696245 -0.270535 0.664871
15.1933 -57.3388 479.996 0.675959 -0.314594 0.666415
15.0138 -57.5663 480.084 0.69228 -0.343024 0.634888
14.8316 -57.7648 480.157 0.677029 -0.347989 0.648487
14.6495 -57.9626 480.23 0.657627 -0.356565 0.663618
14.466 -58.146 480.295 0.613936 -0.352035 0.706508
14.2834 -58.3354 480.362 0.608218 -0.359936 0.707473
14.1013 -58.5298 480.434 0.6442 -0.381826 0.662733
13.9184 -58.7141 480.5 0.629847 -0.379037 0.677956
13.7375 -58.9156 480.574 0.627298 -0.390524 0.673786
13.5538 -59.0895 480.635 0.570741 -0.411416 0.710628
13.368 -59.2415 480.683 0.52912 -0.42392 0.735068
13.1814 -59.3862 480.727 0.528536 -0.446335 0.722104
12.9945 -59.5256 480.768 0.52268 -0.433921 0.733838
12.8077 -59.6683 480.816 0.517762 -0.413093 0.749184
12.6226 -59.8216 480.862 0.485521 -0.420055 0.766696
12.4353 -59.956 480.903 0.484693 -0.4324 0.760331
12.2486 -60.0926 480.94 0.480659 -0.435295 0.761239
12.0614 -60.2265 480.981 0.445284 -0.445278 0.77682
11.8736 -60.352 481.014 0.407864 -0.470404 0.782539
11.6845 -60.4652 481.042 0.439056 -0.47374 0.763414
11.4967 -60.5894 481.075 0.449261 -0.45087 0.771285
11.3077 -60.7024 481.103 0.362936 -0.452058 0.814814
11.1178 -60.8067 481.126 0.359843 -0.450397 0.817102
10.9299 -60.9285 481.158 0.335094 -0.476549 0.812781
10.7366 -61.0007 481.164 0.325527 -0.492595 0.807083
10.5468 -61.1042 481.187 0.310377 -0.472488 0.824877
10.3547 -61.1864 481.198 0.262573 -0.493493 0.829168
10.1639 -61.2802 481.215 0.330211 -0.506608 0.796435
9.9746 -61.3858 481.239 0.27481 -0.486353 0.829422
9.7819 -61.4616 481.247 0.28223 -0.49365 0.822591
9.59084 -61.5512 481.262 0.284749 -0.53089 0.798169
9.39888 -61.6325 481.272 0.177055 -0.547451 0.817893
9.20584 -61.7042 481.278 0.270201 -0.555592 0.786326
9.01328 -61.7795 481.285 0.260238 -0.559911 0.786623
8.81865 -61.8371 481.283 0.190669 -0.560573 0.805856
8.62466 -61.8998 481.284 0.212879 -0.52798 0.822144
8.43184 -61.9704 481.289 0.112877 -0.497797 0.859917
8.23528 -62.0142 481.28 0.127722 -0.512655 0.849042
8.04335 -62.0917 481.289 0.161946 -0.534302 0.829635
7.84732 -62.1364 481.28 0.108624 -0.533191 0.838992
7.64967 -62.1668 481.263 0.0727703 -0.513156 0.855205
7.4524 -62.2035 481.25 0.0799628 -0.512435 0.854995
7.25959 -62.2727 481.254 0.0829396 -0.550401 0.83077
7.06253 -62.3073 481.24 0.0430253 -0.576909 0.815674
6.86548 -62.3458 481.228 0.0481536 -0.564371 0.824116
6.66902 -62.3851 481.216 0.0401705 -0.552752 0.832377
6.47192 -62.4204 481.202 0.0222776 -0.564819 0.824914
6.27423 -62.4503 481.185 0.0163921 -0.59072 0.80671
6.07594 -62.4773 481.166 0.0111602 -0.601011 0.799163
5.87784 -62.5038 481.148 -0.0188173 -0.585479 0.810469
5.67949 -62.5296 481.129 -0.0718947 -0.560911 0.824749
5.4786 -62.5351 481.099 -0.0619521 -0.556892 0.828271
5.28032 -62.5611 481.08 -0.0707257 -0.564819 0.822178
5.07792 -62.5551 481.043 -0.120785 -0.557332 0.821457
4.87414 -62.5384 481.001 -0.116477 -0.54686 0.829082
4.6741 -62.5513 480.975 -0.112135 -0.550303 0.827401
4.47373 -62.5617 480.948 -0.134191 -0.532734 0.835576
4.26988 -62.5455 480.906 -0.151011 -0.51691 0.842615
4.06785 -62.5435 480.872 -0.137507 -0.533679 0.834433
3.86848 -62.5622 480.849 -0.136242 -0.565362 0.813514
3.66414 -62.5431 480.806 -0.254802 -0.558964 0.789072
3.45667 -62.5006 480.75 -0.269353 -0.545077 0.79394
3.25193 -62.4793 480.705 -0.18093 -0.573345 0.799087
3.04936 -62.4748 480.67 -0.227893 -0.554475 0.800389
2.8439 -62.4488 480.623 -0.260033 -0.539189 0.801036
2.63868 -62.425 480.577 -0.368695 -0.534413 0.76057
2.42406 -62.3316 480.493 -0.308917 -0.538786 0.78376
2.22243 -62.3355 480.462 -0.262381 -0.507251 0.820885
2.01225 -62.2764 480.397 -0.365781 -0.502701 0.78326
1.80259 -62.2218 480.335 -0.372599 -0.544881 0.751182
1.59483 -62.1818 480.28 -0.391117 -0.549364 0.738394
1.38346 -62.1159 480.211 -0.324352 -0.587269 0.74156
1.17918 -62.1024 480.171 -0.366763 -0.566266 0.738125
0.961544 -61.9922 480.078 -0.429279 -0.527788 0.732911
0.750245 -61.9288 480.011 -0.423127 -0.517535 0.743721
0.540192 -61.8751 479.948 -0.436651 -0.529021 0.727649
0.324774 -61.7836 479.866 -0.456929 -0.544179 0.703623
0.111268 -61.7065 479.791 -0.488112 -0.513853 0.70548
-0.106931 -61.5968 479.698 -0.501949 -0.506662 0.700957
-0.32086 -61.5147 479.623 -0.500871 -0.524641 0.68839
-0.538917 -61.4115 479.531 -0.513021 -0.506142 0.693275
-0.758437 -61.2952 479.435 -0.524763 -0.489609 0.696352
-0.973692 -61.209 479.356 -0.566929 -0.49648 0.657342
-1.19808 -61.0621 479.242 -0.57553 -0.506489 0.642055
-1.41735 -60.9518 479.148 -0.568251 -0.496216 0.656399
-1.64245 -60.7993 479.034 -0.613758 -0.461423 0.640617
-1.86749 -60.6499 478.92 -0.63974 -0.448051 0.624486
-2.09538 -60.4822 478.795 -0.632487 -0.449158 0.631044
-2.31761 -60.3548 478.693 -0.643901 -0.457899 0.612961
-2.54866 -60.1679 478.558 -0.704175 -0.449698 0.549462
-2.78323 -59.9585 478.412 -0.688702 -0.458037 0.562042
-3.00822 -59.8159 478.301 -0.70526 -0.416992 0.573347
-3.25121 -59.5523 478.125 -0.746261 -0.400076 0.532008
-3.4844 -59.3571 477.985 -0.711552 -0.440529 0.547383
-3.72156 -59.1365 477.832 -0.724071 -0.395136 0.565322
-3.96499 -58.8755 477.657 -0.77962 -0.347821 0.520781
-4.21119 -58.5978 477.473 -0.803074 -0.358097 0.476276
-4.46221 -58.2901 477.273 -0.824633 -0.357097 0.438706
-4.71697 -57.9596 477.06 -0.850362 -0.381614 0.362293
-4.97303 -57.6229 476.844 -0.858575 -0.390376 0.332348
15.3319 -56.8992 480.021 0.702727 -0.244284 0.668206
15.1573 -57.1773 480.136 0.69069 -0.28393 0.665079
14.975 -57.3775 480.21 0.675181 -0.325298 0.662051
14.7952 -57.6 480.296 0.668929 -0.342554 0.65969
14.6138 -57.805 480.372 0.63417 -0.370749 0.678508
14.4288 -57.9742 480.43 0.64178 -0.389694 0.660498
14.2481 -58.1829 480.508 0.675447 -0.39717 0.621311
14.0661 -58.3768 480.579 0.643863 -0.40213 0.650947
13.8816 -58.5461 480.636 0.647115 -0.39133 0.654296
13.7003 -58.7446 480.709 0.611436 -0.38723 0.690072
13.5129 -58.884 480.751 0.543008 -0.383267 0.74716
13.3293 -59.0583 480.811 0.530746 -0.383368 0.755869
13.1439 -59.2134 480.861 0.500446 -0.427957 0.7526
12.9559 -59.3444 480.898 0.505168 -0.452908 0.734629
12.7694 -59.4882 480.943 0.520947 -0.436423 0.733586
12.5833 -59.633 480.986 0.50047 -0.420885 0.756562
12.3968 -59.7748 481.029 0.480281 -0.422057 0.768894
12.2102 -59.914 481.071 0.472649 -0.434029 0.766956
12.0224 -60.0425 481.107 0.456608 -0.445006 0.770376
11.8355 -60.1746 481.141 0.421962 -0.456345 0.783388
11.646 -60.2869 481.172 0.410485 -0.462465 0.785893
11.4571 -60.402 481.2 0.408482 -0.453266 0.792271
11.2686 -60.5197 481.23 0.363052 -0.460016 0.810295
11.0773 -60.6121 481.247 0.382687 -0.452137 0.805681
10.8902 -60.741 481.283 0.341782 -0.455462 0.822034
10.6986 -60.8288 481.297 0.295568 -0.502078 0.812747
10.5075 -60.9209 481.314 0.335858 -0.514392 0.789051
10.318 -61.0271 481.338 0.330777 -0.545229 0.770267
10.1265 -61.1144 481.351 0.304232 -0.572512 0.761363
9.9311 -61.1678 481.347 0.307913 -0.536696 0.785587
9.74335 -61.287 481.378 0.343528 -0.520475 0.781725
9.55385 -61.3902 481.401 0.266142 -0.532853 0.803265
9.35794 -61.4381 481.393 0.213967 -0.518147 0.828095
9.16632 -61.5223 481.405 0.25788 -0.518469 0.815284
8.97523 -61.6106 481.42 0.226848 -0.53934 0.810957
8.78179 -61.6786 481.424 0.152581 -0.556055 0.81702
8.58499 -61.7179 481.412 0.151989 -0.576027 0.803176
8.38946 -61.7678 481.406 0.162976 -0.581964 0.796717
8.19578 -61.833 481.408 0.183413 -0.561348 0.806999
8.00192 -61.8965 481.409 0.144623 -0.537183 0.830975
7.80529 -61.9367 481.397 0.0730839 -0.541578 0.837468
7.61031 -61.9904 481.393 0.0877827 -0.56794 0.818375
7.41544 -62.0449 481.39 0.158451 -0.600477 0.783786
7.22147 -62.1065 481.39 0.124148 -0.604955 0.786522
7.02393 -62.1364 481.373 0.0288274 -0.585209 0.81037
6.82506 -62.1603 481.353 0.0340698 -0.581397 0.812906
6.62707 -62.1902 481.336 0.056316 -0.5684 0.820823
6.43146 -62.2367 481.328 0.0540849 -0.554895 0.83016
6.23508 -62.2768 481.317 0.0216743 -0.554686 0.831777
6.03705 -62.3065 481.3 -0.0240561 -0.558813 0.828945
5.83627 -62.313 481.27 -0.0677947 -0.545116 0.835615
5.63433 -62.3104 481.236 -0.0809357 -0.525259 0.847084
5.43488 -62.3298 481.213 -0.0557264 -0.537195 0.841615
5.23583 -62.3461 481.189 -0.0909797 -0.540148 0.836638
5.03405 -62.3475 481.157 -0.134393 -0.554991 0.820928
4.83505 -62.3688 481.135 -0.104507 -0.600081 0.793084
4.63366 -62.3714 481.104 -0.129399 -0.625998 0.769014
4.42817 -62.3427 481.055 -0.148562 -0.616584 0.773145
4.22856 -62.3597 481.031 -0.117852 -0.599901 0.791347
4.0281 -62.3702 481.004 -0.0886765 -0.583128 0.807526
3.82724 -62.3779 480.975 -0.150544 -0.578163 0.801913
3.62234 -62.3549 480.93 -0.272553 -0.551275 0.78855
3.41509 -62.3164 480.876 -0.230772 -0.557338 0.79757
3.21595 -62.334 480.852 -0.208363 -0.567147 0.796825
3.00614 -62.2771 480.789 -0.249106 -0.526926 0.812585
2.80233 -62.264 480.748 -0.263731 -0.551885 0.791118
2.59326 -62.2119 480.687 -0.367026 -0.571601 0.733869
2.38466 -62.1638 480.628 -0.347031 -0.589676 0.729282
2.17449 -62.1048 480.563 -0.267919 -0.565233 0.780212
1.97153 -62.0997 480.527 -0.315723 -0.547701 0.774818
1.7629 -62.053 480.469 -0.366452 -0.563008 0.740766
1.55019 -61.977 480.395 -0.352384 -0.558927 0.750617
1.34491 -61.9561 480.351 -0.346943 -0.580597 0.736571
1.12919 -61.8595 480.265 -0.403608 -0.517433 0.754562
0.921059 -61.819 480.21 -0.43841 -0.494908 0.750242
0.705974 -61.7286 480.128 -0.411657 -0.54871 0.727637
0.494907 -61.6681 480.063 -0.417916 -0.532706 0.735915
0.282035 -61.6014 479.988 -0.481644 -0.507221 0.714665
0.0629767 -61.4792 479.894 -0.492091 -0.503171 0.710398
-0.149579 -61.4139 479.823 -0.484482 -0.519138 0.704112
-0.366888 -61.3091 479.735 -0.518543 -0.524143 0.675564
-0.586441 -61.1929 479.638 -0.528862 -0.50992 0.678444
-0.801492 -61.1068 479.56 -0.512998 -0.509623 0.690738
-1.02044 -60.9878 479.468 -0.554542 -0.489356 0.673063
-1.24109 -60.8743 479.368 -0.583545 -0.485556 0.650931
-1.46413 -60.7372 479.26 -0.589529 -0.474522 0.65367
-1.68601 -60.609 479.158 -0.621683 -0.465611 0.629854
-1.91259 -60.4495 479.038 -0.647301 -0.486855 0.586493
-2.13871 -60.2944 478.921 -0.63085 -0.494224 0.598139
-2.36391 -60.147 478.808 -0.638864 -0.470839 0.60841
-2.5911 -59.9872 478.688 -0.700056 -0.442166 0.560724
-2.82652 -59.7723 478.538 -0.712186 -0.439283 0.54756
-3.06554 -59.5345 478.376 -0.710726 -0.422993 0.56209
-3.29445 -59.3674 478.252 -0.73259 -0.425421 0.531346
-3.53516 -59.1216 478.086 -0.738985 -0.431172 0.517679
-3.77331 -58.8949 477.929 -0.753829 -0.418886 0.506237
-4.01317 -58.6585 477.768 -0.785526 -0.415899 0.458233
-4.26105 -58.3702 477.578 -0.807649 -0.395289 0.437549
-4.51174 -58.0651 477.379 -0.812505 -0.396218 0.427606
-4.75603 -57.805 477.205 -0.843757 -0.380766 0.378274
-5.03248 -57.3333 476.916 -0.846859 -0.337118 0.411316
14.5733 -57.6004 480.49 0.620003 -0.312213 0.719805
14.3945 -57.8298 480.579 0.648426 -0.349875 0.676115
14.211 -58.0122 480.643 0.629781 -0.350817 0.693039
14.0274 -58.192 480.706 0.592954 -0.333986 0.732707
13.845 -58.3814 480.774 0.598603 -0.357829 0.716682
13.6599 -58.5445 480.828 0.564739 -0.38577 0.729555
13.4748 -58.7057 480.882 0.541048 -0.391703 0.744201
13.2895 -58.8634 480.933 0.566782 -0.389022 0.726237
13.106 -59.0376 480.993 0.527023 -0.41907 0.739342
12.919 -59.1783 481.035 0.494306 -0.45169 0.742723
12.7316 -59.3134 481.074 0.498064 -0.450633 0.740852
12.544 -59.4459 481.112 0.499749 -0.437995 0.74727
12.3576 -59.5894 481.158 0.494043 -0.429146 0.756145
12.1708 -59.7261 481.196 0.476279 -0.432437 0.765608
11.9842 -59.8654 481.238 0.452105 -0.444948 0.77306
11.7954 -59.9832 481.267 0.42623 -0.462259 0.777589
11.6065 -60.1012 481.301 0.406356 -0.480259 0.77732
11.4169 -60.2089 481.322 0.40843 -0.480598 0.776022
11.2287 -60.3297 481.354 0.373146 -0.483277 0.791963
11.0378 -60.4259 481.373 0.381546 -0.481838 0.788831
10.8493 -60.5431 481.402 0.390775 -0.475828 0.787961
10.6602 -60.6541 481.429 0.326289 -0.493276 0.806358
10.4692 -60.7471 481.446 0.363634 -0.492177 0.790906
10.2817 -60.8709 481.479 0.336472 -0.502964 0.796124
10.0883 -60.9422 481.484 0.235054 -0.512022 0.826186
9.89731 -61.034 481.501 0.298024 -0.523792 0.798012
9.70569 -61.12 481.514 0.327928 -0.527089 0.78399
9.51167 -61.1848 481.516 0.215054 -0.503327 0.836907
9.31879 -61.2591 481.523 0.227677 -0.507321 0.831137
9.12812 -61.3518 481.539 0.272252 -0.515135 0.81272
8.93447 -61.4187 481.542 0.215095 -0.516161 0.829043
8.74042 -61.482 481.543 0.167964 -0.519092 0.838052
8.54815 -61.56 481.552 0.152536 -0.538733 0.828553
8.35432 -61.6245 481.554 0.135926 -0.562841 0.815312
8.15685 -61.6583 481.539 0.133744 -0.550702 0.823917
7.96157 -61.7103 481.534 0.128579 -0.532891 0.836358
7.76713 -61.7691 481.533 0.119962 -0.56677 0.815096
7.57136 -61.8167 481.525 0.158001 -0.582282 0.797486
7.37837 -61.8866 481.53 0.142163 -0.561755 0.814997
7.1807 -61.9189 481.514 0.0581391 -0.551615 0.83207
6.98329 -61.9506 481.498 0.0169715 -0.548861 0.835741
6.78609 -61.989 481.486 0.0177549 -0.563466 0.825948
6.58834 -62.0189 481.469 0.0367064 -0.56615 0.823485
6.39049 -62.0487 481.452 0.0438518 -0.545143 0.837196
6.19241 -62.0781 481.435 0.011025 -0.521898 0.852937
5.99403 -62.1025 481.415 -0.0561904 -0.522279 0.850921
5.79328 -62.1105 481.386 -0.0967215 -0.543849 0.833591
5.59423 -62.1313 481.365 -0.0556508 -0.558036 0.827949
5.39596 -62.1583 481.346 -0.0536654 -0.559469 0.827112
5.19466 -62.1615 481.315 -0.0726654 -0.56604 0.821169
4.99659 -62.1902 481.297 -0.0685774 -0.57279 0.816829
4.79494 -62.1912 481.265 -0.0785736 -0.554726 0.828315
4.59593 -62.2127 481.244 -0.152977 -0.53526 0.83072
4.39284 -62.2029 481.205 -0.172299 -0.570637 0.802924
4.18943 -62.1908 481.166 -0.140337 -0.568007 0.810971
3.98472 -62.1692 481.121 -0.108878 -0.531006 0.840344
3.78638 -62.1963 481.103 -0.194378 -0.542585 0.817202
3.57614 -62.1332 481.036 -0.264347 -0.548629 0.793175
3.37535 -62.1425 481.008 -0.217727 -0.552915 0.804289
3.16523 -62.0813 480.942 -0.262682 -0.509265 0.819541
2.9614 -62.0681 480.902 -0.21874 -0.500445 0.83768
2.76083 -62.0799 480.875 -0.234256 -0.546835 0.803801
2.55413 -62.0458 480.823 -0.346248 -0.532367 0.772462
2.34349 -61.983 480.756 -0.375345 -0.516232 0.769818
2.13327 -61.9239 480.692 -0.28937 -0.564562 0.773004
1.9287 -61.9073 480.649 -0.293776 -0.573452 0.764754
1.71604 -61.8314 480.576 -0.371626 -0.547239 0.749949
1.51019 -61.8063 480.529 -0.326831 -0.581811 0.744766
1.30023 -61.7515 480.466 -0.415023 -0.540157 0.732111
1.08397 -61.6515 480.379 -0.42626 -0.511499 0.746104
0.874342 -61.6006 480.319 -0.383241 -0.550279 0.741835
0.66406 -61.5466 480.255 -0.426316 -0.524921 0.736691
0.450235 -61.4595 480.181 -0.435953 -0.499458 0.748656
0.234769 -61.3742 480.097 -0.484161 -0.501061 0.717305
0.0204948 -61.286 480.022 -0.479279 -0.531651 0.698311
-0.194013 -61.2055 479.943 -0.475577 -0.541953 0.692903
-0.410554 -61.1139 479.857 -0.529015 -0.508614 0.679305
-0.629106 -61.0038 479.765 -0.531648 -0.510622 0.675734
-0.84885 -60.8883 479.668 -0.526399 -0.503619 0.685034
-1.06705 -60.781 479.579 -0.550939 -0.479137 0.683296
-1.28833 -60.6555 479.478 -0.588243 -0.460344 0.664871
-1.51332 -60.5073 479.363 -0.590502 -0.466758 0.658365
-1.7338 -60.3894 479.266 -0.598137 -0.475776 0.644879
-1.95733 -60.2516 479.158 -0.643328 -0.477585 0.598366
-2.18641 -60.0766 479.03 -0.646568 -0.479717 0.593145
-2.41297 -59.9203 478.912 -0.647832 -0.461624 0.605984
-2.6432 -59.7401 478.782 -0.69636 -0.428161 0.575988
-2.87875 -59.525 478.632 -0.717374 -0.409245 0.563821
-3.10794 -59.3549 478.507 -0.709406 -0.449132 0.543161
-3.34449 -59.1362 478.355 -0.726135 -0.421587 0.543133
-3.58217 -58.9115 478.2 -0.735258 -0.394728 0.550986
-3.81739 -58.7052 478.055 -0.74624 -0.41575 0.519883
-4.0599 -58.4514 477.884 -0.788195 -0.399309 0.468296
-4.31114 -58.141 477.683 -0.805298 -0.392423 0.444409
-4.55637 -57.8731 477.504 -0.806447 -0.372491 0.459231
-4.81675 -57.5063 477.272 -0.849155 -0.321979 0.418647
-5.08627 -57.0814 477.009 -0.846134 -0.348097 0.403592
14.5359 -57.4259 480.623 0.65323 -0.283593 0.702044
14.3544 -57.6302 480.699 0.623306 -0.328027 0.70985
14.1686 -57.7903 480.751 0.59034 -0.35228 0.726221
13.9864 -57.9845 480.822 0.632275 -0.351602 0.690365
13.8054 -58.1881 480.897 0.607719 -0.357546 0.709111
13.6217 -58.3638 480.958 0.553636 -0.379498 0.741262
13.4358 -58.5184 481.008 0.554437 -0.393215 0.733472
13.252 -58.6912 481.067 0.578495 -0.392594 0.714992
13.0678 -58.8588 481.123 0.537332 -0.405192 0.739658
12.8804 -58.9963 481.164 0.482643 -0.428023 0.764102
12.6934 -59.1358 481.205 0.482639 -0.448142 0.752481
12.506 -59.2704 481.245 0.493825 -0.453235 0.742101
12.319 -59.4083 481.285 0.496837 -0.44562 0.744699
12.1323 -59.5472 481.326 0.48099 -0.437798 0.759592
11.9449 -59.6788 481.363 0.458003 -0.442267 0.771124
11.7577 -59.8119 481.402 0.43829 -0.462522 0.770698
11.5692 -59.9328 481.434 0.413279 -0.492013 0.76624
11.3798 -60.0439 481.46 0.398525 -0.490402 0.775038
11.1904 -60.1542 481.486 0.376788 -0.486147 0.788474
11.0001 -60.2562 481.507 0.385317 -0.496766 0.77766
10.8115 -60.3731 481.537 0.380552 -0.471879 0.795305
10.6204 -60.466 481.554 0.329451 -0.463261 0.822709
10.4301 -60.5667 481.575 0.359771 -0.48144 0.799237
10.2398 -60.6653 481.594 0.299577 -0.488805 0.819343
10.0461 -60.7351 481.599 0.263932 -0.478839 0.837289
9.85652 -60.8397 481.622 0.302158 -0.489811 0.817793
9.66447 -60.9223 481.633 0.241597 -0.509041 0.82614
9.47176 -60.9989 481.641 0.224316 -0.500822 0.835978
9.27982 -61.0817 481.653 0.259288 -0.515973 0.81642
9.08667 -61.1537 481.658 0.247926 -0.506898 0.825583
8.89495 -61.2375 481.67 0.189017 -0.477195 0.858229
8.70077 -61.3001 481.671 0.174951 -0.475407 0.862195
8.50679 -61.3619 481.671 0.160164 -0.477101 0.864131
8.31054 -61.4109 481.665 0.0984416 -0.490074 0.866104
8.11554 -61.4638 481.66 0.0997277 -0.521543 0.847377
7.92065 -61.5195 481.657 0.175718 -0.544229 0.820328
7.72896 -61.6015 481.668 0.148378 -0.550493 0.821548
7.53216 -61.6389 481.655 0.114823 -0.548407 0.828291
7.3356 -61.6843 481.646 0.0971935 -0.536141 0.838514
7.13932 -61.7258 481.636 0.0420492 -0.540323 0.840406
6.94304 -61.7654 481.624 0.0371711 -0.549381 0.834745
6.74465 -61.7955 481.607 0.0237552 -0.554543 0.831816
6.54686 -61.8253 481.59 0.0086596 -0.561366 0.827522
6.34814 -61.851 481.571 0.0076428 -0.56151 0.827435
6.15026 -61.8807 481.554 0.00439073 -0.552797 0.833305
5.95236 -61.9103 481.537 -0.0301778 -0.540073 0.841077
5.75378 -61.9358 481.518 -0.0703055 -0.553588 0.829818
5.55194 -61.9349 481.484 -0.0519792 -0.566448 0.822456
5.35265 -61.9544 481.462 -0.0491438 -0.551126 0.832974
5.15356 -61.9754 481.44 -0.066157 -0.545764 0.835323
4.95234 -61.98 481.41 -0.100656 -0.525228 0.844987
4.75014 -61.977 481.375 -0.120022 -0.504288 0.855154
4.54793 -61.9743 481.341 -0.111909 -0.500653 0.858384
4.348 -61.9895 481.316 -0.177344 -0.515482 0.838348
4.14249 -61.9618 481.268 -0.187844 -0.529139 0.827482
3.94272 -61.9786 481.244 -0.100747 -0.54183 0.834428
3.74167 -61.9857 481.215 -0.18955 -0.536749 0.822175
3.53731 -61.9678 481.172 -0.257676 -0.550926 0.793778
3.3303 -61.9301 481.119 -0.274896 -0.569773 0.774462
3.12337 -61.8936 481.066 -0.269698 -0.596282 0.756115
2.91974 -61.8824 481.027 -0.150334 -0.600087 0.785682
2.71689 -61.8774 480.991 -0.253512 -0.510837 0.821448
2.5043 -61.7998 480.917 -0.361086 -0.478272 0.800545
2.2964 -61.758 480.861 -0.322075 -0.522082 0.789746
2.09286 -61.7491 480.823 -0.278374 -0.557074 0.782417
1.88444 -61.7044 480.766 -0.322664 -0.581366 0.746928
1.67719 -61.6689 480.714 -0.334128 -0.580333 0.742679
1.46821 -61.6211 480.655 -0.368901 -0.532944 0.761501
1.25282 -61.5271 480.571 -0.44326 -0.508882 0.737943
1.04196 -61.4669 480.506 -0.387922 -0.541312 0.745988
0.835086 -61.4352 480.456 -0.408876 -0.545882 0.731323
0.614471 -61.3069 480.353 -0.453029 -0.518265 0.725373
0.40401 -61.2518 480.29 -0.42913 -0.502384 0.750638
0.191731 -61.1842 480.221 -0.452957 -0.512914 0.729211
-0.022417 -61.104 480.144 -0.470156 -0.545998 0.693426
-0.238429 -61.0113 480.061 -0.501618 -0.523935 0.688383
-0.457916 -60.9006 479.964 -0.523622 -0.487527 0.698669
-0.675242 -60.7945 479.878 -0.534748 -0.479021 0.69612
-0.894243 -60.6844 479.784 -0.545381 -0.488865 0.68086
-1.11473 -60.565 479.686 -0.562401 -0.470763 0.67977
-1.33698 -60.431 479.582 -0.582879 -0.466921 0.665009
-1.55657 -60.3189 479.488 -0.585108 -0.493332 0.64364
-1.77989 -60.1818 479.381 -0.588338 -0.486042 0.646236
-2.00253 -60.0506 479.277 -0.635113 -0.448374 0.628961
-2.23223 -59.8717 479.147 -0.652632 -0.436376 0.619393
-2.45861 -59.7172 479.03 -0.66119 -0.439229 0.608198
-2.69054 -59.5258 478.893 -0.703379 -0.414862 0.577189
-2.92541 -59.3159 478.747 -0.697012 -0.442461 0.564272
-3.15472 -59.1455 478.621 -0.726412 -0.454418 0.515587
-3.40018 -58.8667 478.437 -0.745394 -0.433791 0.506175
-3.63209 -58.6819 478.304 -0.727779 -0.437395 0.528227
-3.87197 -58.4446 478.142 -0.742965 -0.400146 0.53655
-4.11073 -58.2168 477.986 -0.780918 -0.370537 0.502862
-4.35997 -57.9204 477.792 -0.809028 -0.363806 0.461649
-4.61712 -57.5734 477.571 -0.816379 -0.337692 0.468496
-4.86972 -57.2592 477.367 -0.838607 -0.324212 0.43775
14.4955 -57.2231 480.742 0.633795 -0.224572 0.740183
14.3149 -57.4354 480.822 0.586117 -0.266628 0.765099
14.1338 -57.6423 480.899 0.599941 -0.327783 0.729814
13.9508 -57.8285 480.965 0.627353 -0.358337 0.691392
13.7665 -58.0006 481.024 0.60393 -0.365175 0.70846
13.5821 -58.1714 481.082 0.571146 -0.382619 0.72622
13.3979 -58.3424 481.14 0.572167 -0.399376 0.716327
13.2128 -58.5045 481.195 0.56956 -0.395657 0.720456
13.0276 -58.6622 481.246 0.519978 -0.383486 0.763257
12.8419 -58.8158 481.294 0.49067 -0.39982 0.774201
12.6552 -58.9596 481.34 0.485446 -0.429883 0.761277
12.468 -59.0953 481.378 0.482184 -0.445377 0.754412
12.2812 -59.2338 481.416 0.480493 -0.449718 0.752914
12.0932 -59.3612 481.45 0.480806 -0.451563 0.751609
11.9064 -59.5007 481.494 0.470463 -0.43975 0.765039
11.7187 -59.6289 481.53 0.443256 -0.427651 0.787806
11.5314 -59.7605 481.567 0.387735 -0.45933 0.799173
11.3393 -59.8481 481.579 0.380255 -0.487474 0.785987
11.1513 -59.9722 481.614 0.395622 -0.488337 0.777824
10.9616 -60.0796 481.638 0.345648 -0.486002 0.802701
10.7685 -60.1565 481.647 0.33491 -0.44913 0.828322
10.5805 -60.2779 481.679 0.359249 -0.446637 0.819423
10.3918 -60.3927 481.707 0.338552 -0.473765 0.812975
10.2001 -60.48 481.721 0.272049 -0.490711 0.827763
10.0081 -60.5648 481.733 0.307267 -0.509746 0.803583
9.81839 -60.6684 481.756 0.311179 -0.510344 0.801696
9.62539 -60.7433 481.763 0.228567 -0.522364 0.821519
9.43092 -60.8051 481.763 0.270939 -0.533849 0.800998
9.24149 -60.9098 481.786 0.242815 -0.517059 0.820787
9.0456 -60.9589 481.779 0.185168 -0.50706 0.841786
8.8511 -61.0197 481.779 0.191628 -0.50644 0.840712
8.657 -61.0834 481.78 0.185677 -0.515589 0.836476
8.46432 -61.1589 481.788 0.172433 -0.518624 0.837434
8.27057 -61.2251 481.79 0.150428 -0.519115 0.841363
8.07695 -61.292 481.793 0.15984 -0.539642 0.826582
7.88276 -61.3539 481.793 0.174758 -0.543169 0.821235
7.68698 -61.4024 481.786 0.126987 -0.522647 0.843039
7.49113 -61.4501 481.779 0.0797157 -0.498182 0.8634
7.29591 -61.503 481.774 0.0817882 -0.510142 0.856193
7.09949 -61.5457 481.764 0.0497419 -0.525307 0.849458
6.90204 -61.5757 481.748 0.0341882 -0.518674 0.854289
6.70452 -61.6191 481.738 0.0253742 -0.534495 0.84479
6.50716 -61.6489 481.721 0.0104468 -0.570066 0.821532
6.30921 -61.6787 481.704 0.000464057 -0.588583 0.808437
6.10986 -61.6981 481.681 -0.0117152 -0.596 0.802899
5.91001 -61.7133 481.657 -0.0120916 -0.574902 0.818133
5.7116 -61.7399 481.638 -0.0487415 -0.561917 0.825757
5.51214 -61.7584 481.615 -0.0705469 -0.577309 0.813473
5.31199 -61.7714 481.589 -0.0536539 -0.585402 0.808966
5.1113 -61.7804 481.561 -0.0980516 -0.553782 0.826869
4.90845 -61.7763 481.525 -0.131307 -0.524973 0.840929
4.70848 -61.7838 481.497 -0.120109 -0.537209 0.834854
4.50757 -61.7954 481.47 -0.0919215 -0.560756 0.822863
4.30701 -61.8061 481.443 -0.155744 -0.567635 0.808415
4.10275 -61.7884 481.4 -0.158665 -0.5724 0.804477
3.90156 -61.7947 481.371 -0.114622 -0.562652 0.818709
3.69764 -61.7802 481.33 -0.173774 -0.539876 0.823612
3.49455 -61.7724 481.293 -0.235167 -0.509355 0.827801
3.28925 -61.7483 481.247 -0.243074 -0.522222 0.817434
3.08751 -61.7514 481.215 -0.262931 -0.567745 0.780085
2.87599 -61.681 481.144 -0.274113 -0.579337 0.767614
2.66851 -61.6418 481.09 -0.296982 -0.552713 0.778659
2.46279 -61.6162 481.043 -0.311022 -0.542574 0.780307
2.25826 -61.5999 481.002 -0.278745 -0.596877 0.752355
2.0473 -61.5362 480.934 -0.24536 -0.578185 0.778139
1.84731 -61.5543 480.911 -0.322696 -0.529999 0.784199
1.62973 -61.443 480.818 -0.385565 -0.518341 0.763323
1.42085 -61.3966 480.76 -0.38956 -0.5012 0.772685
1.21022 -61.3379 480.695 -0.414089 -0.533828 0.737264
0.99941 -61.2785 480.63 -0.380759 -0.540368 0.750349
0.785099 -61.1944 480.552 -0.430768 -0.486325 0.760215
0.57495 -61.1413 480.49 -0.472312 -0.511623 0.717749
0.357014 -61.0335 480.398 -0.419207 -0.546875 0.724702
0.147653 -60.9865 480.34 -0.415175 -0.525415 0.742676
-0.0668723 -60.9099 480.261 -0.485144 -0.508199 0.711596
-0.285074 -60.7962 480.172 -0.530872 -0.488407 0.692556
-0.504225 -60.6825 480.077 -0.530236 -0.483772 0.696286
-0.72176 -60.5814 479.989 -0.524832 -0.489725 0.696219
-0.940421 -60.4732 479.898 -0.559971 -0.484817 0.671852
-1.16348 -60.3351 479.79 -0.566946 -0.492025 0.660669
-1.38032 -60.2383 479.707 -0.563005 -0.501249 0.657096
-1.60394 -60.1018 479.598 -0.589553 -0.483094 0.647339
-1.82772 -59.962 479.489 -0.607627 -0.448644 0.655369
-2.05497 -59.7995 479.368 -0.6386 -0.431308 0.637309
-2.28281 -59.6341 479.246 -0.65325 -0.458181 0.602773
-2.5098 -59.4759 479.127 -0.674541 -0.446104 0.588205
-2.74385 -59.2706 478.983 -0.686303 -0.426097 0.589431
-2.96879 -59.1292 478.873 -0.682119 -0.454834 0.572573
-3.20288 -58.9267 478.731 -0.735012 -0.450284 0.506954
-3.43889 -58.7127 478.582 -0.752634 -0.465198 0.465975
-3.67841 -58.4767 478.421 -0.754875 -0.468506 0.458985
-3.92211 -58.2142 478.246 -0.764175 -0.443159 0.468665
-4.16259 -57.9753 478.083 -0.781664 -0.380828 0.493934
-4.41527 -57.6565 477.878 -0.81177 -0.328241 0.482999
-4.66899 -57.3331 477.67 -0.814874 -0.32142 0.482358
-4.92409 -57.0029 477.458 -0.823884 -0.271295 0.497609
14.4499 -56.9699 480.834 0.6342 -0.202835 0.746088
14.2715 -57.2043 480.925 0.597995 -0.194455 0.777553
14.092 -57.4269 481.011 0.56693 -0.216736 0.794742
13.9095 -57.6186 481.08 0.559772 -0.268843 0.783823
13.7276 -57.815 481.152 0.558689 -0.29805 0.773972
13.5445 -57.9968 481.215 0.553968 -0.326027 0.766046
13.3602 -58.1677 481.273 0.542421 -0.359813 0.759154
13.174 -58.3183 481.32 0.527531 -0.397841 0.750622
12.9872 -58.4627 481.364 0.539237 -0.41152 0.734762
12.8027 -58.6275 481.418 0.51803 -0.391336 0.760592
12.6163 -58.7731 481.463 0.483499 -0.396397 0.780448
12.4298 -58.9178 481.508 0.476094 -0.425987 0.769331
12.2424 -59.0511 481.544 0.478225 -0.44086 0.759568
12.0561 -59.1965 481.591 0.459048 -0.449018 0.766588
11.8652 -59.2985 481.615 0.451997 -0.461315 0.76347
11.6783 -59.4339 481.651 0.465537 -0.448151 0.763175
11.4911 -59.5664 481.689 0.400065 -0.420986 0.814075
11.3034 -59.694 481.724 0.368508 -0.443294 0.817124
11.1127 -59.7939 481.746 0.36629 -0.483988 0.794725
10.9209 -59.8831 481.759 0.298855 -0.504036 0.810329
10.7288 -59.9691 481.772 0.364077 -0.495813 0.788427
10.5418 -60.0999 481.809 0.396578 -0.472141 0.787279
10.3497 -60.1849 481.821 0.317023 -0.440149 0.840099
10.1604 -60.294 481.847 0.296738 -0.454058 0.840106
9.96921 -60.3863 481.863 0.305488 -0.499291 0.810793
9.77718 -60.4706 481.875 0.285271 -0.491294 0.822952
9.5857 -60.5591 481.89 0.245959 -0.482444 0.840685
9.39524 -60.6557 481.908 0.231861 -0.52091 0.821519
9.19772 -60.6916 481.895 0.211767 -0.528686 0.821977
9.00673 -60.7829 481.911 0.192605 -0.52502 0.82901
8.81277 -60.8486 481.913 0.219381 -0.557213 0.800866
8.62161 -60.9377 481.927 0.199305 -0.558033 0.805529
8.42411 -60.9729 481.913 0.164318 -0.51375 0.842057
8.23083 -61.0434 481.918 0.17241 -0.491976 0.853366
8.03583 -61.0992 481.915 0.158233 -0.503311 0.849494
7.84161 -61.1597 481.915 0.120145 -0.506188 0.854013
7.64473 -61.2029 481.905 0.0791616 -0.521332 0.849675
7.44794 -61.2417 481.893 0.102034 -0.517917 0.849324
7.25326 -61.2995 481.891 0.0926431 -0.504332 0.858526
7.05638 -61.3388 481.879 0.0358755 -0.520653 0.853014
6.85846 -61.3703 481.863 0.0574863 -0.534433 0.843254
6.66337 -61.4241 481.859 0.0695662 -0.531311 0.844315
6.46683 -61.4661 481.848 0.026242 -0.535607 0.84406
6.26904 -61.4978 481.832 -0.00152095 -0.540021 0.84165
6.07095 -61.5275 481.815 -0.0491049 -0.546315 0.836139
5.87004 -61.5347 481.786 -0.0394677 -0.557947 0.828937
5.67183 -61.5632 481.768 -0.0325583 -0.554697 0.831415
5.47124 -61.5731 481.741 -0.0641396 -0.532466 0.844018
5.27186 -61.5927 481.718 -0.109374 -0.535621 0.837345
5.06758 -61.5738 481.675 -0.140774 -0.5534 0.820933
4.86628 -61.5824 481.647 -0.109537 -0.560347 0.820983
4.66629 -61.5903 481.618 -0.0822969 -0.557902 0.825816
4.46586 -61.606 481.594 -0.0938793 -0.530883 0.842229
4.26368 -61.6046 481.56 -0.154167 -0.519391 0.840515
4.06086 -61.5985 481.524 -0.171266 -0.521704 0.835759
3.85665 -61.5864 481.484 -0.15611 -0.50681 0.847805
3.65637 -61.5915 481.454 -0.218106 -0.537757 0.8144
3.44636 -61.5359 481.391 -0.21704 -0.55479 0.803182
3.24615 -61.5509 481.366 -0.185778 -0.509784 0.840004
3.03918 -61.515 481.314 -0.249981 -0.48903 0.835679
2.83716 -61.5168 481.282 -0.306777 -0.527997 0.791901
2.62827 -61.4673 481.222 -0.308942 -0.59626 0.740964
2.41987 -61.422 481.165 -0.242246 -0.597597 0.764326
2.2161 -61.4118 481.126 -0.302352 -0.531704 0.791122
2.00521 -61.3491 481.059 -0.305966 -0.524845 0.794307
1.79616 -61.3007 481 -0.33251 -0.481729 0.810786
1.58762 -61.2566 480.944 -0.401309 -0.474647 0.783365
1.37663 -61.1951 480.878 -0.350126 -0.522064 0.777728
1.16903 -61.1591 480.825 -0.406958 -0.502594 0.762748
0.950795 -61.046 480.731 -0.436739 -0.508085 0.742367
0.741728 -61.0006 480.674 -0.400493 -0.522568 0.752681
0.528478 -60.9246 480.6 -0.441094 -0.520111 0.731382
0.315921 -60.856 480.53 -0.442023 -0.531883 0.722299
0.101773 -60.77 480.455 -0.425987 -0.511575 0.746208
-0.112678 -60.6924 480.377 -0.49467 -0.46893 0.731714
-0.331696 -60.579 480.283 -0.533201 -0.473967 0.700751
-0.549118 -60.4777 480.196 -0.52633 -0.492364 0.69322
-0.767818 -60.3701 480.103 -0.525244 -0.495166 0.692047
-0.986038 -60.2652 480.014 -0.554249 -0.503017 0.66316
-1.20598 -60.1545 479.917 -0.561753 -0.513086 0.648981
-1.42749 -60.0256 479.817 -0.573464 -0.486229 0.659333
-1.65099 -59.887 479.709 -0.614863 -0.464557 0.637284
