2.80811 -73.3481 472.642 -0.346304 -0.676482 0.649959
2.5784 -73.2955 472.599 -0.343696 -0.683819 0.643634
2.33196 -73.198 472.53 -0.412948 -0.664926 0.622372
2.07698 -73.0775 472.448 -0.40591 -0.683732 0.606422
1.85659 -73.0516 472.42 -0.389246 -0.702632 0.595648
1.60533 -72.9425 472.344 -0.42678 -0.724364 0.541439
1.35967 -72.8489 472.278 -0.446566 -0.71275 0.540894
1.11247 -72.7515 472.209 -0.462249 -0.675158 0.57488
0.86309 -72.6489 472.137 -0.459328 -0.675349 0.576994
0.616719 -72.5547 472.07 -0.487997 -0.682782 0.543754
0.354195 -72.4178 471.978 -0.496548 -0.697079 0.517225
0.0919472 -72.2822 471.887 -0.544115 -0.655604 0.523568
-0.178412 -72.1256 471.784 -0.575778 -0.626224 0.525665
-0.451818 -71.9615 471.677 -0.543015 -0.646945 0.535348
-0.722508 -71.8053 471.574 -0.580577 -0.583677 0.567673
-1.01143 -71.6014 471.444 -0.638151 -0.474617 0.60622
-1.32669 -71.3285 471.274 -0.639123 -0.371737 0.6733
-1.65303 -71.0273 471.087 -0.670218 -0.301246 0.678276
-2.00892 -70.6491 470.857 -0.708103 -0.269513 0.652651
18.2826 -67.1579 470.388 0.852245 -0.205622 0.481039
18.1503 -67.3941 470.51 0.833234 -0.221742 0.506509
18.0136 -67.6161 470.625 0.833897 -0.230361 0.501547
17.8822 -67.8538 470.748 0.839839 -0.221233 0.495708
17.7445 -68.0713 470.86 0.823306 -0.183876 0.536988
17.6075 -68.2907 470.973 0.786191 -0.142479 0.601334
17.4718 -68.5135 471.087 0.746884 -0.12233 0.653605
17.3355 -68.7337 471.201 0.722961 -0.122159 0.680003
17.1978 -68.9492 471.312 0.71406 -0.131762 0.687573
17.0549 -69.1481 471.413 0.702071 -0.132852 0.699605
16.9177 -69.3644 471.524 0.670706 -0.159954 0.724271
16.769 -69.5442 471.616 0.66379 -0.216345 0.715945
16.6169 -69.7146 471.699 0.684476 -0.247938 0.68558
16.4684 -69.8941 471.791 0.683742 -0.260218 0.68175
16.3189 -70.0703 471.881 0.654531 -0.294211 0.69644
16.1597 -70.2186 471.95 0.64246 -0.340116 0.686707
16.0062 -70.3828 472.031 0.651179 -0.371019 0.662051
15.8469 -70.5289 472.102 0.640809 -0.407 0.650933
15.6829 -70.6606 472.165 0.628168 -0.43776 0.64325
15.5226 -70.8032 472.234 0.56049 -0.477276 0.676801
15.358 -70.9324 472.296 0.545579 -0.549742 0.632556
15.1891 -71.0479 472.353 0.609108 -0.58543 0.535032
15.0224 -71.1717 472.407 0.594024 -0.598875 0.537108
14.8525 -71.2845 472.46 0.554692 -0.630366 0.543098
14.6814 -71.3926 472.512 0.557263 -0.659362 0.504678
14.5123 -71.5088 472.563 0.535886 -0.685426 0.492968
14.3329 -71.5929 472.598 0.502427 -0.707178 0.49746
14.1526 -71.6744 472.633 0.529348 -0.678709 0.509062
13.9813 -71.7821 472.682 0.517693 -0.650295 0.555977
13.8028 -71.8688 472.719 0.517094 -0.633547 0.575528
13.6291 -71.9692 472.764 0.519369 -0.598544 0.609919
13.4553 -72.0692 472.808 0.488492 -0.58585 0.646649
13.2853 -72.1804 472.859 0.474518 -0.599383 0.64465
13.1037 -72.2573 472.891 0.463638 -0.596417 0.65523
12.9207 -72.3301 472.92 0.428299 -0.557693 0.711012
12.7452 -72.4244 472.962 0.395471 -0.556385 0.730779
12.5634 -72.5004 472.993 0.453759 -0.540047 0.708839
12.3941 -72.6128 473.044 0.414699 -0.521606 0.745621
12.2062 -72.6709 473.065 0.360708 -0.524195 0.771433
12.0298 -72.7619 473.105 0.344794 -0.52777 0.776257
11.8431 -72.8247 473.128 0.308631 -0.534211 0.786998
11.6649 -72.9098 473.164 0.316593 -0.53718 0.781797
11.476 -72.9653 473.184 0.300452 -0.530457 0.792681
11.2924 -73.035 473.211 0.278627 -0.504295 0.817346
11.1054 -73.0965 473.233 0.248238 -0.513123 0.821634
10.916 -73.1486 473.251 0.254076 -0.525972 0.811664
10.7292 -73.2112 473.274 0.248148 -0.536512 0.806584
10.5395 -73.2632 473.291 0.237216 -0.545867 0.803591
10.353 -73.3244 473.314 0.23766 -0.549923 0.800689
10.1629 -73.3764 473.331 0.203558 -0.563561 0.800601
9.96705 -73.4118 473.338 0.201856 -0.563305 0.801213
9.77712 -73.4636 473.356 0.19275 -0.565645 0.801806
9.58713 -73.5149 473.373 0.146046 -0.575769 0.804463
9.38731 -73.5394 473.374 0.153691 -0.577162 0.802037
9.19115 -73.5738 473.381 0.10946 -0.574216 0.811353
8.9965 -73.6126 473.39 0.0877896 -0.614961 0.783655
8.7984 -73.6416 473.394 0.138563 -0.609725 0.780407
8.60542 -73.6852 473.407 0.128009 -0.548827 0.826077
8.40205 -73.6995 473.402 0.120434 -0.535191 0.836102
8.20404 -73.729 473.407 -0.00839795 -0.513431 0.85809
8.00025 -73.7424 473.402 -0.0674734 -0.561757 0.824546
7.7842 -73.7214 473.377 0.082202 -0.578639 0.81143
7.59031 -73.7628 473.388 0.0941587 -0.524286 0.84632
7.39956 -73.813 473.404 0.00804607 -0.575063 0.818069
7.18177 -73.7877 473.377 -0.0767768 -0.577831 0.812537
6.96152 -73.7557 473.346 -0.0897198 -0.550927 0.829717
6.76526 -73.7909 473.353 -0.0454793 -0.605382 0.794635
6.5464 -73.7641 473.324 -0.0441298 -0.585497 0.809473
6.34146 -73.7745 473.319 -0.0430614 -0.539094 0.841144
6.1464 -73.8121 473.329 -0.113149 -0.604154 0.788794
5.91349 -73.7473 473.278 -0.117005 -0.613794 0.780747
5.70942 -73.7614 473.273 -0.0993195 -0.563528 0.820105
5.48587 -73.7219 473.238 -0.15767 -0.528245 0.834324
5.2702 -73.7043 473.215 -0.198957 -0.543616 0.815412
5.04784 -73.6686 473.182 -0.221525 -0.596236 0.771641
4.82497 -73.6317 473.148 -0.200875 -0.623521 0.75556
4.6065 -73.6066 473.121 -0.215653 -0.626767 0.74877
4.38111 -73.564 473.083 -0.215785 -0.642103 0.735623
4.16421 -73.5442 473.059 -0.218852 -0.653855 0.724277
3.93455 -73.49 473.015 -0.292233 -0.643908 0.707095
3.70121 -73.4284 472.964 -0.303368 -0.655367 0.691709
3.46977 -73.3674 472.919 -0.320904 -0.67529 0.664081
3.23384 -73.297 472.866 -0.305656 -0.685001 0.661323
3.01585 -73.2757 472.841 -0.27108 -0.682137 0.679121
2.78607 -73.2227 472.798 -0.338229 -0.677932 0.652694
2.53772 -73.1197 472.726 -0.351072 -0.676863 0.646997
2.31535 -73.0874 472.694 -0.396836 -0.716595 0.573596
2.07192 -72.999 472.631 -0.3909 -0.745691 0.539576
1.82577 -72.9028 472.563 -0.350728 -0.692025 0.630944
1.59522 -72.8494 472.519 -0.431155 -0.676026 0.597574
1.33557 -72.7182 472.431 -0.479416 -0.690039 0.542224
1.0742 -72.583 472.34 -0.462868 -0.674833 0.574764
0.826399 -72.4846 472.271 -0.441406 -0.66446 0.603038
0.574642 -72.3761 472.196 -0.466863 -0.641082 0.60914
0.323998 -72.2711 472.122 -0.51264 -0.605526 0.608719
0.0566498 -72.122 472.024 -0.54789 -0.560749 0.620788
-0.216763 -71.9573 471.916 -0.556245 -0.538741 0.632732
-0.483599 -71.8108 471.819 -0.566843 -0.520662 0.638436
-0.7694 -71.6145 471.694 -0.615313 -0.427987 0.66198
-1.09037 -71.3257 471.515 -0.663418 -0.350784 0.660929
-1.42918 -70.9908 471.309 -0.66508 -0.309617 0.679563
-1.74412 -70.72 471.141 -0.694561 -0.297053 0.655244
-2.11009 -70.3155 470.895 -0.731404 -0.297543 0.613609
-2.48532 -69.8879 470.637 -0.75479 -0.299834 0.583431
18.2494 -66.9913 470.521 0.86556 -0.23935 0.439907
18.1178 -67.2297 470.645 0.850725 -0.243724 0.465689
17.9861 -67.4672 470.768 0.839702 -0.244994 0.484642
17.8475 -67.6829 470.879 0.824489 -0.268269 0.498247
17.7032 -67.8804 470.979 0.810401 -0.264529 0.522757
17.5646 -68.0949 471.089 0.802956 -0.235686 0.547462
17.4227 -68.2989 471.193 0.791991 -0.211347 0.572785
17.2848 -68.5137 471.306 0.76434 -0.175516 0.620466
17.143 -68.7171 471.409 0.725557 -0.155718 0.670313
17.0022 -68.924 471.511 0.719864 -0.145743 0.678641
16.8607 -69.1269 471.616 0.705671 -0.138086 0.694954
16.7214 -69.3362 471.723 0.66851 -0.157627 0.726807
16.575 -69.5235 471.818 0.663207 -0.194419 0.722743
16.4231 -69.6909 471.908 0.671537 -0.215619 0.708905
16.2731 -69.8693 471.99 0.657415 -0.235639 0.715738
16.1251 -70.0503 472.081 0.648021 -0.279443 0.708506
15.966 -70.1966 472.154 0.651032 -0.310221 0.692763
15.8131 -70.3617 472.238 0.629282 -0.333304 0.702077
15.6548 -70.512 472.308 0.60852 -0.398337 0.686317
15.4877 -70.6345 472.365 0.619817 -0.440734 0.649293
15.3277 -70.7781 472.434 0.599717 -0.441858 0.667159
15.1628 -70.9064 472.495 0.573569 -0.460116 0.677726
14.9959 -71.0264 472.557 0.565878 -0.476461 0.67288
14.8292 -71.1493 472.613 0.557406 -0.498669 0.663799
14.6624 -71.2726 472.669 0.545647 -0.542696 0.638553
14.4881 -71.3726 472.712 0.519288 -0.593074 0.615307
14.3191 -71.487 472.767 0.466095 -0.636923 0.614073
14.1397 -71.5711 472.802 0.47358 -0.65891 0.584431
13.9635 -71.6656 472.842 0.499362 -0.676889 0.540794
13.7879 -71.7615 472.882 0.483117 -0.691609 0.536913
13.6097 -71.8479 472.92 0.499359 -0.676239 0.54161
13.4342 -71.9434 472.962 0.51335 -0.650998 0.559173
13.2571 -72.0337 473.002 0.47558 -0.647666 0.595276
13.0804 -72.1246 473.042 0.40971 -0.675049 0.613552
12.8989 -72.2036 473.072 0.441313 -0.690315 0.573331
12.7232 -72.2959 473.115 0.436871 -0.679211 0.58976
12.5407 -72.3686 473.144 0.438561 -0.659017 0.611033
12.3594 -72.4488 473.177 0.422563 -0.640815 0.640934
12.1802 -72.531 473.212 0.382927 -0.619319 0.685427
11.9989 -72.6083 473.243 0.361348 -0.625053 0.691908
11.8121 -72.6698 473.266 0.340868 -0.635336 0.692934
11.6277 -72.7373 473.292 0.319385 -0.615873 0.720204
11.4391 -72.7944 473.312 0.275773 -0.619082 0.735314
11.2493 -72.8466 473.33 0.302584 -0.608268 0.733794
11.066 -72.9181 473.358 0.283448 -0.580949 0.762991
10.879 -72.9784 473.38 0.275478 -0.56798 0.775571
10.6942 -73.0454 473.406 0.264259 -0.571997 0.776522
10.5045 -73.0976 473.423 0.250587 -0.582135 0.773515
10.3157 -73.1548 473.443 0.249165 -0.577768 0.777239
10.1261 -73.2067 473.46 0.205366 -0.578088 0.789708
9.93601 -73.2584 473.477 0.20313 -0.570134 0.796044
9.74592 -73.31 473.494 0.190626 -0.563899 0.803542
9.54732 -73.3378 473.497 0.148902 -0.56735 0.809903
9.35626 -73.3863 473.513 0.138582 -0.590842 0.794796
9.16007 -73.4211 473.52 0.16665 -0.625214 0.762454
8.96953 -73.4714 473.536 0.0971644 -0.635997 0.76555
8.75742 -73.461 473.518 0.0551339 -0.618169 0.784109
8.55482 -73.4775 473.515 0.112085 -0.580235 0.8067
8.36391 -73.5272 473.53 0.0647692 -0.603153 0.794991
8.1531 -73.5208 473.514 0.0524368 -0.601601 0.797074
7.95928 -73.5624 473.525 -0.0148347 -0.600753 0.799297
7.74804 -73.5551 473.509 0.0169813 -0.608723 0.793201
7.55276 -73.5927 473.517 0.147049 -0.565395 0.811606
7.3519 -73.6148 473.517 -0.00323019 -0.574007 0.818844
7.13963 -73.605 473.499 -0.11213 -0.592173 0.797971
6.9359 -73.6193 473.495 -0.00926497 -0.629598 0.776866
6.73133 -73.6305 473.49 -0.0699683 -0.622358 0.779599
6.50881 -73.5936 473.455 -0.0999712 -0.644808 0.757779
6.30337 -73.6054 473.447 0.0443256 -0.672925 0.738382
6.09692 -73.611 473.439 -0.101493 -0.618569 0.779148
5.87915 -73.5871 473.413 -0.176748 -0.617157 0.766732
5.65747 -73.5547 473.379 -0.151335 -0.619882 0.769963
5.43833 -73.5255 473.352 -0.144724 -0.619849 0.77126
5.23023 -73.529 473.341 -0.13517 -0.67957 0.72105
5.01181 -73.5076 473.313 -0.189336 -0.685408 0.703113
4.79337 -73.4825 473.286 -0.198135 -0.67041 0.715047
4.56851 -73.4391 473.25 -0.198344 -0.686256 0.699795
4.35227 -73.4198 473.228 -0.202271 -0.70337 0.681437
4.12394 -73.3688 473.186 -0.228076 -0.68534 0.691585
3.90268 -73.3375 473.155 -0.279569 -0.684186 0.673595
3.67152 -73.2795 473.109 -0.279505 -0.704618 0.652219
3.45242 -73.2532 473.083 -0.313388 -0.722522 0.616239
3.21063 -73.1684 473.02 -0.314146 -0.741082 0.593388
2.97674 -73.104 472.97 -0.268083 -0.729485 0.629272
2.74581 -73.0479 472.925 -0.336494 -0.663442 0.668294
2.5142 -72.9904 472.88 -0.290785 -0.681413 0.671654
2.29401 -72.964 472.852 -0.363104 -0.700178 0.614741
2.02735 -72.8125 472.752 -0.447587 -0.61459 0.649573
1.78618 -72.7303 472.692 -0.346815 -0.634331 0.690901
1.5558 -72.6775 472.649 -0.398706 -0.660586 0.636129
1.30457 -72.569 472.574 -0.496056 -0.64749 0.57852
1.05106 -72.4549 472.495 -0.479171 -0.691816 0.540172
0.798959 -72.345 472.42 -0.45995 -0.679655 0.571415
0.545587 -72.2324 472.342 -0.487177 -0.61299 0.622015
0.275942 -72.0766 472.24 -0.534199 -0.542698 0.648159
-0.00131134 -71.9012 472.126 -0.547391 -0.480192 0.685404
-0.269659 -71.7502 472.027 -0.546613 -0.443439 0.710335
-0.555763 -71.5526 471.9 -0.587694 -0.364486 0.722333
-0.875064 -71.2676 471.724 -0.617897 -0.287682 0.731739
-1.18284 -71.0141 471.565 -0.65586 -0.269865 0.704997
-1.5239 -70.6734 471.357 -0.66375 -0.280638 0.69331
-1.8454 -70.3856 471.179 -0.699645 -0.301536 0.647745
-2.21397 -69.9746 470.93 -0.741242 -0.319853 0.590131
-2.5587 -69.6277 470.718 -0.766173 -0.365913 0.528287
18.2238 -66.8481 470.668 0.869781 -0.26948 0.413355
18.0873 -67.0714 470.783 0.848247 -0.254902 0.464221
17.9503 -67.2929 470.897 0.834288 -0.226583 0.502617
17.8214 -67.5385 471.025 0.802055 -0.251963 0.541501
17.6742 -67.7272 471.12 0.794773 -0.290317 0.532965
17.5332 -67.9348 471.226 0.806246 -0.294683 0.512961
17.3883 -68.1296 471.325 0.787676 -0.294134 0.541343
17.2383 -68.3086 471.414 0.772974 -0.259787 0.578811
17.0958 -68.5106 471.514 0.758517 -0.224969 0.611589
16.9527 -68.71 471.615 0.748258 -0.212349 0.628504
16.808 -68.9025 471.716 0.736985 -0.187205 0.649467
16.6656 -69.103 471.816 0.705183 -0.162119 0.690242
16.5205 -69.2942 471.914 0.667424 -0.161497 0.726955
16.3745 -69.4825 472.009 0.652033 -0.169037 0.739107
16.2273 -69.6666 472.102 0.653857 -0.172312 0.736736
16.0787 -69.8456 472.193 0.625957 -0.189853 0.756395
15.9252 -70.0108 472.273 0.601867 -0.210414 0.770378
15.7693 -70.1675 472.35 0.634024 -0.244619 0.733605
15.6192 -70.3415 472.437 0.597621 -0.271363 0.754461
15.4611 -70.4909 472.51 0.551684 -0.320407 0.770055
15.2905 -70.6027 472.561 0.576433 -0.38112 0.722823
15.129 -70.7413 472.628 0.57018 -0.418694 0.706816
14.9586 -70.8531 472.68 0.569981 -0.434819 0.697176
14.7973 -70.9921 472.746 0.577329 -0.43326 0.692082
14.6299 -71.1125 472.803 0.559537 -0.45711 0.691353
14.4689 -71.2518 472.87 0.517044 -0.516266 0.682741
14.2869 -71.3293 472.899 0.469134 -0.520482 0.713451
14.118 -71.4436 472.954 0.484481 -0.530216 0.695809
13.9463 -71.5507 473.003 0.49296 -0.605988 0.624315
13.7705 -71.6431 473.047 0.467328 -0.6617 0.586309
13.5912 -71.7264 473.085 0.471338 -0.669458 0.574165
13.4161 -71.8258 473.124 0.483016 -0.659682 0.575774
13.2395 -71.917 473.163 0.478204 -0.675605 0.561141
13.0638 -72.0119 473.204 0.455534 -0.689259 0.563392
12.8851 -72.0974 473.241 0.428028 -0.724395 0.54041
12.7005 -72.1636 473.269 0.417123 -0.724792 0.548347
12.5208 -72.2477 473.302 0.412952 -0.707564 0.573431
12.3407 -72.3287 473.335 0.386261 -0.719303 0.577413
12.1509 -72.3816 473.353 0.394097 -0.684502 0.613306
11.9752 -72.4753 473.394 0.374217 -0.664728 0.646605
11.7889 -72.5382 473.417 0.316205 -0.699176 0.641223
11.6014 -72.5975 473.439 0.324644 -0.7157 0.618368
11.418 -72.6686 473.467 0.293622 -0.72871 0.618682
11.2281 -72.7206 473.484 0.280064 -0.731875 0.621227
11.0363 -72.7679 473.499 0.287274 -0.704361 0.649114
10.8458 -72.82 473.516 0.297099 -0.665252 0.684962
10.6602 -72.8833 473.54 0.287539 -0.642472 0.710317
10.4718 -72.94 473.56 0.25509 -0.636536 0.72784
10.2823 -72.9919 473.577 0.246903 -0.648161 0.720366
10.0911 -73.042 473.593 0.209612 -0.667312 0.714673
9.8931 -73.0713 473.597 0.204975 -0.65261 0.729441
9.70194 -73.1201 473.612 0.192661 -0.627908 0.754064
9.51049 -73.1681 473.627 0.188506 -0.632893 0.750941
9.3191 -73.2165 473.642 0.203516 -0.646881 0.734933
9.12832 -73.2661 473.658 0.165585 -0.651723 0.740162
8.92686 -73.2859 473.657 0.0641241 -0.64684 0.759925
8.72662 -73.3091 473.658 0.0218338 -0.646028 0.763001
8.52613 -73.3318 473.658 0.143018 -0.66627 0.731867
8.33485 -73.3805 473.673 0.0700107 -0.698546 0.712132
8.12323 -73.3721 473.656 0.0477492 -0.707273 0.705326
7.92891 -73.4122 473.666 0.00885408 -0.694227 0.719702
7.70765 -73.3768 473.633 -0.00196819 -0.667728 0.744403
7.51233 -73.4145 473.642 0.132427 -0.657147 0.742039
7.31562 -73.4483 473.649 0.0101551 -0.663213 0.748362
7.10559 -73.4449 473.635 -0.0481088 -0.677163 0.734259
6.89525 -73.4409 473.62 -0.0244982 -0.679259 0.73349
6.68375 -73.4338 473.603 -0.0408191 -0.685569 0.726862
6.4876 -73.4682 473.612 -0.0405405 -0.732156 0.67993
6.27563 -73.4616 473.593 -0.0456352 -0.739505 0.671603
6.06115 -73.4509 473.57 -0.106295 -0.713097 0.69296
5.84529 -73.4282 473.549 -0.173062 -0.711611 0.680926
5.62554 -73.4004 473.519 -0.149477 -0.736372 0.659858
5.41754 -73.4038 473.509 -0.0601609 -0.770963 0.634032
5.20974 -73.4073 473.499 -0.125149 -0.749279 0.650322
4.98172 -73.3561 473.457 -0.207826 -0.700737 0.682477
4.75827 -73.3179 473.422 -0.178137 -0.709895 0.681408
4.54668 -73.3125 473.407 -0.175683 -0.742749 0.646111
4.32142 -73.2697 473.37 -0.223565 -0.7375 0.63727
4.09712 -73.23 473.334 -0.225062 -0.743091 0.630209
3.87574 -73.1985 473.303 -0.255017 -0.727619 0.636818
3.64326 -73.1383 473.255 -0.250403 -0.691031 0.678067
3.42129 -73.1036 473.224 -0.288585 -0.683967 0.670006
3.1846 -73.032 473.17 -0.333691 -0.672922 0.660171
2.95836 -72.9885 473.132 -0.336497 -0.701127 0.628642
2.70989 -72.8849 473.06 -0.323899 -0.703303 0.632815
2.486 -72.8483 473.026 -0.254382 -0.694226 0.673305
2.25269 -72.7866 472.978 -0.434772 -0.64937 0.623933
1.98458 -72.6313 472.876 -0.444959 -0.635822 0.630668
1.76553 -72.6088 472.851 -0.311037 -0.698462 0.64452
1.52386 -72.5257 472.79 -0.388526 -0.674879 0.627364
1.28039 -72.4381 472.727 -0.451406 -0.600818 0.659735
1.02553 -72.3204 472.647 -0.47841 -0.546667 0.687226
0.761385 -72.1741 472.555 -0.48796 -0.490476 0.722031
0.492063 -72.0225 472.451 -0.507756 -0.442617 0.739104
0.222643 -71.8681 472.349 -0.545224 -0.397179 0.738227
-0.0642654 -71.6663 472.221 -0.543045 -0.366967 0.755273
-0.342968 -71.4883 472.106 -0.572196 -0.329399 0.751058
-0.66434 -71.1975 471.926 -0.615623 -0.280298 0.736506
-0.971889 -70.9441 471.768 -0.632115 -0.275735 0.724155
-1.30103 -70.6343 471.577 -0.659903 -0.293387 0.691703
-1.62142 -70.3487 471.401 -0.669866 -0.319504 0.670222
-1.93718 -70.0763 471.232 -0.709281 -0.34688 0.613673
-2.28553 -69.7189 471.014 -0.737709 -0.377317 0.559837
-2.61869 -69.4027 470.819 -0.767896 -0.427843 0.476746
-3.00725 -68.9418 470.542 -0.776397 -0.466859 0.423381
-3.33148 -68.6515 470.363 -0.752948 -0.543559 0.370962
18.6137 -66.0494 470.48 0.844291 -0.495976 0.202927
18.4705 -66.2541 470.583 0.878485 -0.437096 0.192901
18.3294 -66.4643 470.691 0.899373 -0.359133 0.249303
18.1966 -66.7001 470.813 0.86466 -0.327735 0.380727
18.0518 -66.8977 470.913 0.839538 -0.304037 0.450264
17.9164 -67.1244 471.03 0.84393 -0.256806 0.470991
17.7783 -67.3419 471.141 0.808286 -0.22131 0.545615
17.6448 -67.5729 471.26 0.780815 -0.239987 0.576831
17.5011 -67.7722 471.361 0.778317 -0.269928 0.566888
17.3572 -67.9705 471.462 0.748422 -0.298371 0.592316
17.2044 -68.1407 471.547 0.761828 -0.316894 0.564975
17.0606 -68.3384 471.647 0.779808 -0.295152 0.552074
16.9133 -68.5246 471.741 0.754942 -0.275805 0.594974
16.765 -68.7076 471.832 0.733759 -0.254538 0.629926
16.614 -68.8818 471.919 0.722321 -0.224111 0.654237
16.4693 -69.0743 472.018 0.706031 -0.221047 0.672799
16.3165 -69.2429 472.1 0.686762 -0.21444 0.694531
16.1692 -69.4269 472.193 0.658032 -0.175927 0.73215
16.0177 -69.5979 472.278 0.614462 -0.160134 0.772524
15.8654 -69.7663 472.361 0.620867 -0.154864 0.768467
15.7257 -69.9723 472.466 0.602775 -0.185482 0.776054
15.556 -70.0875 472.52 0.568838 -0.181454 0.802183
15.4082 -70.2683 472.61 0.553813 -0.184602 0.811919
15.2537 -70.4282 472.689 0.54897 -0.254502 0.796154
15.0945 -70.5741 472.76 0.54095 -0.316748 0.77913
14.9275 -70.6963 472.817 0.541917 -0.363709 0.757655
14.762 -70.8228 472.877 0.576135 -0.394854 0.715653
14.5979 -70.9533 472.939 0.577395 -0.40091 0.711256
14.432 -71.0781 472.998 0.46376 -0.434664 0.772007
14.2482 -71.1494 473.026 0.469724 -0.460911 0.752941
14.089 -71.2925 473.097 0.54888 -0.439391 0.711102
13.9185 -71.4043 473.146 0.502951 -0.461185 0.730992
13.7518 -71.5252 473.204 0.457231 -0.566139 0.685876
13.5678 -71.5962 473.231 0.450051 -0.606297 0.655635
13.3966 -71.7042 473.28 0.476925 -0.559352 0.677988
13.2202 -71.7957 473.322 0.458919 -0.580604 0.672527
13.0437 -71.8888 473.361 0.464638 -0.58545 0.66435
12.8707 -71.9901 473.406 0.401735 -0.632253 0.662469
12.6847 -72.0553 473.431 0.374929 -0.66388 0.647063
12.5047 -72.1365 473.465 0.40298 -0.653443 0.640795
12.3217 -72.2091 473.494 0.333369 -0.696874 0.635005
12.1332 -72.2657 473.513 0.356593 -0.699771 0.619001
11.9511 -72.3409 473.544 0.396391 -0.675343 0.621921
11.7698 -72.4183 473.576 0.346023 -0.702342 0.62208
11.5864 -72.4897 473.604 0.331663 -0.728768 0.59908
11.3979 -72.546 473.624 0.290701 -0.720396 0.6297
11.2078 -72.5981 473.641 0.242504 -0.740205 0.627127
11.0156 -72.6438 473.655 0.244289 -0.76805 0.591964
10.825 -72.6943 473.671 0.27758 -0.765526 0.580448
10.6348 -72.7465 473.688 0.285534 -0.75463 0.590766
10.445 -72.7986 473.705 0.286864 -0.739165 0.60938
10.2598 -72.8644 473.73 0.27618 -0.738663 0.6149
10.0702 -72.9162 473.748 0.201367 -0.760755 0.617012
9.87427 -72.953 473.756 0.182891 -0.766605 0.615522
9.67989 -72.9933 473.766 0.216474 -0.740558 0.63617
9.487 -73.0359 473.779 0.226995 -0.714564 0.661719
9.2962 -73.0866 473.795 0.20855 -0.714003 0.668361
9.09793 -73.1153 473.799 0.140578 -0.720316 0.679252
8.9009 -73.1477 473.805 0.0607721 -0.709276 0.702306
8.69262 -73.1482 473.792 0.0836575 -0.705199 0.704056
8.50005 -73.1944 473.806 0.17815 -0.715504 0.675512
8.30606 -73.2335 473.816 0.0793155 -0.710326 0.69939
8.10053 -73.2432 473.809 0.024502 -0.727573 0.685592
7.89443 -73.2513 473.8 -0.0255772 -0.742123 0.669775
7.68525 -73.2491 473.787 0.0214162 -0.753384 0.657232
7.4914 -73.295 473.796 0.128072 -0.775415 0.618328
7.28407 -73.2951 473.788 0.0286498 -0.759941 0.649361
7.08119 -73.3118 473.785 -0.0382342 -0.746467 0.664323
6.86935 -73.3047 473.767 -0.0118714 -0.760768 0.648915
6.67451 -73.3431 473.778 0.032686 -0.781614 0.622906
6.45966 -73.3286 473.755 -0.028766 -0.768522 0.639176
6.24935 -73.3234 473.742 -0.086395 -0.743123 0.663554
6.03673 -73.3119 473.725 -0.107397 -0.745016 0.658345
5.82444 -73.3039 473.707 -0.139787 -0.747769 0.649077
5.60722 -73.2823 473.681 -0.0997877 -0.77072 0.629311
5.39801 -73.2806 473.67 -0.0929539 -0.764617 0.637747
5.17031 -73.2333 473.627 -0.188327 -0.707515 0.681143
4.95211 -73.2093 473.6 -0.198071 -0.708642 0.677196
4.737 -73.1941 473.579 -0.132321 -0.748647 0.649629
4.52238 -73.1799 473.559 -0.178304 -0.721982 0.668543
4.29482 -73.1291 473.519 -0.21598 -0.707646 0.672748
4.0803 -73.1161 473.499 -0.241789 -0.718318 0.652348
3.83907 -73.0328 473.436 -0.298166 -0.67898 0.670883
3.61089 -72.9839 473.395 -0.255095 -0.691446 0.675892
3.38671 -72.9446 473.36 -0.295875 -0.691415 0.659093
3.14718 -72.8647 473.302 -0.300075 -0.684347 0.664549
2.92459 -72.8311 473.27 -0.334642 -0.674169 0.658415
2.68228 -72.7443 473.207 -0.340672 -0.666868 0.662744
2.45409 -72.6962 473.167 -0.279023 -0.68294 0.675084
2.22106 -72.6354 473.12 -0.442177 -0.617696 0.650332
1.961 -72.5018 473.03 -0.404957 -0.631547 0.66118
1.7329 -72.455 472.991 -0.320201 -0.620269 0.716057
1.48373 -72.3518 472.919 -0.430107 -0.506213 0.7475
1.21874 -72.2053 472.824 -0.462521 -0.424026 0.778638
0.951072 -72.0556 472.723 -0.481243 -0.365739 0.796643
0.681081 -71.8972 472.62 -0.490212 -0.351302 0.797671
0.416666 -71.7525 472.527 -0.51386 -0.332877 0.790659
0.126369 -71.5455 472.393 -0.533473 -0.294832 0.792768
-0.153377 -71.3632 472.276 -0.549279 -0.292545 0.782758
-0.452817 -71.1298 472.13 -0.607643 -0.302777 0.734232
-0.762795 -70.8693 471.968 -0.634473 -0.310025 0.708046
-1.06787 -70.6227 471.813 -0.643778 -0.326021 0.692286
-1.37619 -70.3684 471.655 -0.668103 -0.356023 0.653366
-1.68963 -70.1014 471.489 -0.685855 -0.410416 0.600967
-2.01204 -69.8117 471.31 -0.719617 -0.435781 0.540598
-2.34492 -69.4953 471.116 -0.728792 -0.454226 0.512387
-2.66104 -69.2243 470.948 -0.758131 -0.47495 0.446833
-3.01133 -68.8654 470.728 -0.763386 -0.550443 0.338016
-3.33475 -68.5787 470.545 -0.719855 -0.642336 0.263083
18.6104 -65.974 470.669 0.838098 -0.447284 0.312296
18.4661 -66.1758 470.77 0.846741 -0.464177 0.25994
18.3212 -66.375 470.869 0.857187 -0.448427 0.253267
18.175 -66.569 470.967 0.850879 -0.420347 0.315141
18.0318 -66.7721 471.07 0.842983 -0.404702 0.354395
17.8856 -66.9653 471.168 0.83723 -0.369862 0.402799
17.738 -67.1539 471.263 0.838549 -0.291327 0.460395
17.6068 -67.3922 471.386 0.815905 -0.265347 0.513703
17.4598 -67.5816 471.481 0.782558 -0.274511 0.558791
17.3216 -67.7974 471.592 0.769221 -0.288148 0.570324
17.1755 -67.9883 471.688 0.760484 -0.323514 0.563031
17.0268 -68.1711 471.78 0.762805 -0.334198 0.553571
16.8744 -68.3422 471.865 0.745915 -0.326214 0.580685
16.7255 -68.5234 471.955 0.734818 -0.325379 0.595122
16.5732 -68.6937 472.04 0.752181 -0.300638 0.586379
16.4325 -68.899 472.144 0.730691 -0.296496 0.614964
16.2749 -69.0527 472.219 0.684291 -0.31476 0.657778
16.1172 -69.2056 472.294 0.679822 -0.282381 0.676833
15.9632 -69.3696 472.375 0.665675 -0.241559 0.706064
15.8142 -69.548 472.464 0.682224 -0.210378 0.700223
15.6618 -69.716 472.548 0.595744 -0.21293 0.774435
15.4995 -69.8535 472.614 0.580429 -0.20684 0.787604
15.3518 -70.0349 472.705 0.629138 -0.182676 0.755523
15.197 -70.1945 472.783 0.567379 -0.178818 0.803807
15.0405 -70.3486 472.858 0.512184 -0.173604 0.841148
14.8812 -70.4939 472.929 0.502878 -0.188508 0.843551
14.7252 -70.6491 473.005 0.507011 -0.242538 0.827113
14.5546 -70.7603 473.056 0.486333 -0.269399 0.831207
14.3888 -70.8854 473.115 0.445536 -0.309478 0.840072
14.2206 -71.0034 473.17 0.464094 -0.389219 0.795692
14.0436 -71.0951 473.209 0.523689 -0.385821 0.759534
13.8793 -71.2243 473.271 0.553823 -0.35358 0.753831
13.723 -71.3764 473.345 0.457908 -0.42893 0.778678
13.5366 -71.44 473.369 0.371671 -0.491302 0.787707
13.3574 -71.5246 473.405 0.46311 -0.46998 0.751431
13.1885 -71.6391 473.457 0.438972 -0.48582 0.755833
13.0072 -71.7174 473.49 0.460177 -0.491492 0.739374
12.8403 -71.8376 473.546 0.396572 -0.507358 0.765061
12.6508 -71.8917 473.564 0.34599 -0.54149 0.766211
12.4761 -71.9887 473.607 0.4028 -0.559333 0.724499
12.2967 -72.072 473.642 0.328043 -0.595742 0.73313
12.11 -72.134 473.665 0.327654 -0.626446 0.707254
11.928 -72.2095 473.696 0.39149 -0.605802 0.692632
11.751 -72.2985 473.734 0.360132 -0.617607 0.69919
11.5618 -72.3541 473.753 0.283282 -0.64922 0.705879
11.3719 -72.4065 473.771 0.287408 -0.652906 0.700793
11.1905 -72.4836 473.802 0.277939 -0.684128 0.674329
11.0006 -72.536 473.82 0.246917 -0.716374 0.652564
10.8115 -72.5901 473.838 0.263637 -0.766415 0.58575
10.6211 -72.6422 473.855 0.268165 -0.801794 0.534055
10.4311 -72.6941 473.872 0.289334 -0.794229 0.534309
10.2414 -72.7471 473.89 0.286884 -0.779217 0.557242
10.0513 -72.799 473.907 0.207599 -0.784892 0.583821
9.85322 -72.8283 473.911 0.154911 -0.774861 0.612857
9.6552 -72.8577 473.916 0.182698 -0.753896 0.631081
9.46212 -72.9012 473.928 0.224672 -0.749638 0.622547
9.27025 -72.9489 473.943 0.199004 -0.733695 0.649684
9.07706 -72.9907 473.954 0.106073 -0.729077 0.676162
8.86943 -72.9938 473.943 0.0603888 -0.715777 0.695713
8.67476 -73.033 473.953 0.12742 -0.731577 0.669746
8.47855 -73.0679 473.961 0.149258 -0.758897 0.633875
8.27452 -73.0807 473.956 0.0998167 -0.761726 0.640164
8.07932 -73.1175 473.965 0.0424766 -0.764704 0.642981
7.8719 -73.1241 473.954 -0.00263366 -0.768282 0.640106
7.66971 -73.1371 473.954 0.0809702 -0.799017 0.595832
7.46929 -73.1654 473.952 0.0858845 -0.789784 0.607342
7.26612 -73.1799 473.949 0.00269691 -0.773789 0.633438
7.05539 -73.1742 473.934 -0.0131729 -0.770339 0.637498
6.85184 -73.1898 473.93 0.0234753 -0.735591 0.67702
6.64325 -73.1892 473.919 0.00159129 -0.723647 0.690169
6.43725 -73.1967 473.912 -0.0705671 -0.741598 0.667123
6.2238 -73.1874 473.891 -0.083377 -0.751045 0.654966
6.01166 -73.1791 473.874 -0.102924 -0.738275 0.666601
5.79458 -73.1574 473.849 -0.108448 -0.732296 0.672296
5.58486 -73.1568 473.835 -0.110629 -0.73079 0.673578
5.36423 -73.1252 473.805 -0.172554 -0.702123 0.690832
5.14589 -73.0999 473.779 -0.186723 -0.706322 0.682821
4.92882 -73.0799 473.754 -0.147485 -0.731917 0.665241
4.71005 -73.0547 473.727 -0.168517 -0.701736 0.69222
4.48291 -73.0071 473.686 -0.194873 -0.671672 0.714759
4.26775 -72.9919 473.666 -0.199187 -0.667213 0.71774
4.03864 -72.9391 473.623 -0.281396 -0.637661 0.717081
3.8067 -72.8789 473.576 -0.286612 -0.651372 0.702544
3.58862 -72.8569 473.55 -0.250255 -0.675915 0.693189
3.35362 -72.789 473.499 -0.301746 -0.6499 0.697552
3.12694 -72.7411 473.462 -0.304884 -0.64441 0.701271
2.88795 -72.6647 473.404 -0.336374 -0.608036 0.719128
2.64918 -72.5843 473.349 -0.324755 -0.601427 0.729945
2.42027 -72.5333 473.308 -0.325241 -0.586109 0.742088
2.17015 -72.4319 473.231 -0.418099 -0.506121 0.754344
1.92223 -72.3279 473.163 -0.403596 -0.493329 0.770543
1.67313 -72.2244 473.091 -0.404046 -0.439347 0.802322
1.40718 -72.0798 472.992 -0.470193 -0.36497 0.803564
1.14015 -71.9293 472.893 -0.498777 -0.362134 0.787452
0.869357 -71.7721 472.787 -0.494647 -0.363607 0.789376
0.609678 -71.6422 472.701 -0.511271 -0.35535 0.782514
0.319323 -71.4286 472.568 -0.554715 -0.342364 0.758339
0.0358773 -71.2378 472.445 -0.552434 -0.332328 0.764444
-0.242303 -71.0596 472.332 -0.562987 -0.330081 0.757688
-0.529652 -70.8588 472.204 -0.623672 -0.35035 0.698776
-0.839739 -70.5982 472.042 -0.65648 -0.397938 0.640843
-1.1442 -70.3534 471.889 -0.666823 -0.455382 0.589893
-1.44867 -70.1096 471.737 -0.66672 -0.4698 0.578595
-1.74159 -69.8972 471.602 -0.683212 -0.472771 0.556515
-2.05568 -69.6296 471.436 -0.720834 -0.490328 0.489875
-2.38566 -69.321 471.247 -0.723726 -0.52309 0.450109
-2.70388 -69.0444 471.076 -0.724973 -0.54673 0.418927
-3.01731 -68.7814 470.915 -0.73372 -0.580563 0.352988
-3.34414 -68.482 470.733 -0.700579 -0.651529 0.291031
18.5962 -65.8671 470.834 0.825407 -0.304354 0.47547
18.4584 -66.0885 470.947 0.834281 -0.390227 0.389483
18.3117 -66.2817 471.044 0.827118 -0.460734 0.321868
18.1646 -66.4733 471.14 0.836973 -0.469296 0.281492
18.0218 -66.6772 471.245 0.823805 -0.479775 0.301929
17.8664 -66.8421 471.326 0.806236 -0.485831 0.337567
17.7186 -67.0301 471.421 0.844459 -0.420643 0.331584
17.5755 -67.2319 471.523 0.841238 -0.369915 0.394311
17.4326 -67.434 471.625 0.817172 -0.347802 0.459635
17.2884 -67.6315 471.725 0.803904 -0.313837 0.505218
17.1456 -67.8328 471.827 0.763753 -0.307577 0.567519
16.9962 -68.0135 471.918 0.740538 -0.330637 0.585049
16.8463 -68.1925 472.007 0.74568 -0.345054 0.569999
16.6969 -68.3723 472.097 0.742056 -0.360616 0.565075
16.5434 -68.5392 472.18 0.747309 -0.330383 0.576521
16.3936 -68.7169 472.268 0.720794 -0.306841 0.621535
16.2402 -68.8834 472.351 0.660152 -0.339771 0.669892
16.0808 -69.0314 472.423 0.667034 -0.360448 0.65203
15.9231 -69.1844 472.497 0.694919 -0.333755 0.636942
15.7691 -69.3478 472.578 0.687057 -0.302943 0.660438
15.6132 -69.5062 472.654 0.631338 -0.301661 0.714432
15.4541 -69.6532 472.727 0.633513 -0.294547 0.715474
15.2956 -69.8022 472.799 0.634129 -0.256404 0.729478
15.1371 -69.9509 472.872 0.560477 -0.2293 0.795793
14.9689 -70.0703 472.927 0.556933 -0.222952 0.800074
14.8153 -70.2332 473.008 0.577213 -0.198225 0.792169
14.6586 -70.3863 473.082 0.493464 -0.182777 0.850344
14.4923 -70.5106 473.141 0.473529 -0.196958 0.858474
14.3367 -70.6665 473.217 0.500414 -0.217653 0.837981
14.1729 -70.7977 473.279 0.434356 -0.257596 0.863122
14.0021 -70.908 473.33 0.456484 -0.282999 0.843525
13.8375 -71.0363 473.39 0.535501 -0.257471 0.80433
13.6741 -71.1679 473.453 0.427074 -0.284368 0.858337
13.4952 -71.2538 473.49 0.341839 -0.341289 0.875596
13.3242 -71.3625 473.539 0.435025 -0.380908 0.815882
13.1492 -71.4596 473.582 0.431402 -0.413112 0.802017
12.976 -71.5617 473.628 0.418997 -0.417661 0.806226
12.7955 -71.6421 473.661 0.38516 -0.417512 0.823004
12.6217 -71.7423 473.706 0.371168 -0.453803 0.810122
12.4424 -71.8259 473.741 0.387265 -0.474051 0.79076
12.2611 -71.9038 473.773 0.339045 -0.484384 0.806487
12.0807 -71.9843 473.806 0.306788 -0.52323 0.795054
11.8914 -72.0387 473.825 0.36501 -0.511391 0.777976
11.7171 -72.1367 473.868 0.341724 -0.51824 0.783997
11.5288 -72.1928 473.888 0.268202 -0.547555 0.792623
11.3462 -72.2693 473.919 0.302336 -0.543095 0.783352
11.1592 -72.3289 473.941 0.286576 -0.564521 0.774073
10.9724 -72.3904 473.963 0.305449 -0.588483 0.748592
10.7962 -72.4825 474.003 0.297268 -0.613999 0.731189
10.6063 -72.5346 474.021 0.240894 -0.65043 0.720355
10.4155 -72.585 474.037 0.240644 -0.662896 0.708985
10.2246 -72.6345 474.053 0.242398 -0.663055 0.708238
10.0343 -72.686 474.069 0.15921 -0.683487 0.712389
9.83098 -72.7002 474.065 0.122922 -0.714162 0.689102
9.63861 -72.7464 474.079 0.188053 -0.731877 0.654975
9.4456 -72.7888 474.091 0.185413 -0.715808 0.673232
9.24676 -72.8167 474.094 0.158327 -0.69199 0.704332
9.04818 -72.8447 474.098 0.073368 -0.700384 0.709985
8.84405 -72.8571 474.092 0.101235 -0.737921 0.667251
8.65227 -72.9046 474.107 0.177931 -0.749841 0.637244
8.45492 -72.9363 474.112 0.135685 -0.719135 0.681494
8.26329 -72.9842 474.127 0.0880252 -0.700885 0.707822
8.05362 -72.9784 474.115 0.0366003 -0.700124 0.713083
7.85179 -73.0007 474.112 0.0518649 -0.718583 0.693505
7.65342 -73.0286 474.117 0.0600624 -0.740636 0.669217
7.44553 -73.0325 474.105 0.0376996 -0.70031 0.712843
7.2424 -73.0486 474.101 -0.0110166 -0.682864 0.730463
7.03303 -73.0473 474.088 -0.062293 -0.717727 0.693533
6.81533 -73.0229 474.062 -8.88621e-006 -0.694698 0.719302
6.62093 -73.0637 474.072 0.0156853 -0.649243 0.760419
6.41079 -73.0607 474.058 -0.06134 -0.643564 0.76293
6.19944 -73.0527 474.043 -0.104802 -0.658302 0.745423
5.98214 -73.0316 474.017 -0.113267 -0.676571 0.727614
5.77188 -73.0268 474.004 -0.111693 -0.688913 0.716187
5.55206 -72.9991 473.974 -0.149888 -0.667493 0.729375
5.33335 -72.9747 473.946 -0.16646 -0.652825 0.738993
5.11708 -72.9532 473.925 -0.154818 -0.671438 0.724708
4.89788 -72.929 473.895 -0.186615 -0.663331 0.724684
4.67132 -72.8799 473.858 -0.205109 -0.629433 0.749496
4.45567 -72.8659 473.834 -0.199579 -0.616051 0.762004
4.22669 -72.8132 473.792 -0.230076 -0.617983 0.751772
4.00233 -72.7688 473.759 -0.263289 -0.603499 0.752641
3.77731 -72.7299 473.722 -0.257862 -0.604312 0.753866
3.54294 -72.6608 473.673 -0.271416 -0.579058 0.768782
3.31444 -72.6166 473.628 -0.299302 -0.541319 0.785743
3.07585 -72.5394 473.571 -0.328662 -0.511663 0.79384
2.83644 -72.4604 473.514 -0.333526 -0.516254 0.788824
2.60732 -72.4096 473.472 -0.331166 -0.517588 0.788943
2.35871 -72.3056 473.401 -0.386915 -0.457543 0.800595
2.10792 -72.1979 473.326 -0.413653 -0.420517 0.8075
1.85798 -72.0957 473.251 -0.430255 -0.384816 0.816577
1.59003 -71.938 473.152 -0.459376 -0.351311 0.815815
1.33144 -71.804 473.069 -0.473302 -0.356571 0.805508
1.07137 -71.6775 472.979 -0.497855 -0.363988 0.787181
0.799399 -71.5154 472.872 -0.502731 -0.360411 0.785726
0.525969 -71.3493 472.765 -0.530788 -0.367597 0.763634
0.250949 -71.1794 472.655 -0.568607 -0.35927 0.740007
-0.0377403 -70.9738 472.524 -0.572992 -0.382376 0.724892
-0.322874 -70.7783 472.4 -0.586635 -0.441145 0.679154
-0.604528 -70.5929 472.281 -0.625119 -0.469345 0.623652
-0.890486 -70.3968 472.156 -0.642815 -0.492282 0.586897
-1.17003 -70.2183 472.042 -0.667541 -0.495744 0.555542
-1.49257 -69.9266 471.862 -0.669857 -0.50345 0.545738
-1.78635 -69.712 471.727 -0.674569 -0.526398 0.517554
-2.10156 -69.4415 471.559 -0.709885 -0.540558 0.451509
-2.40952 -69.1912 471.403 -0.715448 -0.580312 0.389066
-2.72694 -68.9168 471.233 -0.703536 -0.603237 0.375689
-3.03168 -68.6771 471.079 -0.705941 -0.611351 0.357627
-3.34727 -68.409 470.917 -0.668251 -0.677432 0.307452
18.5655 -65.7078 470.972 0.821873 -0.16678 0.54471
18.4383 -65.9621 471.104 0.825105 -0.239944 0.511496
18.3032 -66.1913 471.222 0.816792 -0.340581 0.465677
18.1583 -66.3892 471.323 0.823939 -0.427135 0.372398
18.0098 -66.5764 471.416 0.807839 -0.472523 0.352304
17.8609 -66.7613 471.509 0.792994 -0.498192 0.350664
17.7086 -66.9354 471.595 0.812689 -0.494468 0.308283
17.5582 -67.1148 471.685 0.825032 -0.461974 0.325426
17.4103 -67.3016 471.778 0.807614 -0.435592 0.397515
17.2551 -67.4654 471.859 0.797103 -0.385613 0.464681
17.1097 -67.6591 471.957 0.785735 -0.349892 0.510094
16.9612 -67.8426 472.049 0.765269 -0.347647 0.541762
16.8152 -68.0333 472.145 0.75444 -0.339948 0.561477
16.6641 -68.2084 472.232 0.718667 -0.362849 0.593176
16.5049 -68.3579 472.305 0.717478 -0.357125 0.59807
16.3552 -68.5363 472.394 0.724728 -0.334873 0.602187
16.2025 -68.7046 472.478 0.691004 -0.350204 0.632353
16.0484 -68.8693 472.558 0.661732 -0.363897 0.655507
15.8877 -69.0108 472.633 0.673885 -0.366768 0.641374
15.7326 -69.1736 472.706 0.678643 -0.360594 0.639856
15.5742 -69.3243 472.779 0.654183 -0.358972 0.66572
15.4154 -69.4716 472.853 0.626192 -0.363763 0.689609
15.2503 -69.602 472.913 0.609809 -0.355685 0.708252
15.0881 -69.7401 472.979 0.607971 -0.332765 0.72086
14.9357 -69.9068 473.061 0.607048 -0.348165 0.714335
14.7662 -70.0222 473.115 0.596268 -0.357266 0.718906
14.598 -70.1414 473.17 0.568802 -0.300719 0.765527
14.4419 -70.2963 473.246 0.554089 -0.264038 0.789474
14.2745 -70.4174 473.302 0.527021 -0.23738 0.816027
14.1124 -70.5541 473.368 0.460256 -0.223359 0.85923
13.9423 -70.6665 473.419 0.445465 -0.235824 0.863683
13.7748 -70.7866 473.475 0.489458 -0.22098 0.843563
13.6135 -70.9248 473.541 0.435505 -0.239245 0.867812
13.4409 -71.0292 473.589 0.407854 -0.272628 0.871395
13.2744 -71.1519 473.646 0.426186 -0.2769 0.861215
13.1029 -71.2591 473.695 0.383209 -0.296628 0.874736
12.9238 -71.3442 473.731 0.363628 -0.319019 0.875216
12.7499 -71.4441 473.775 0.390889 -0.332638 0.858229
12.5776 -71.5488 473.822 0.371567 -0.36136 0.855194
12.3942 -71.6208 473.851 0.344213 -0.376431 0.860126
12.2207 -71.7218 473.896 0.352138 -0.414675 0.839073
12.037 -71.7927 473.924 0.296977 -0.44496 0.844876
11.8548 -71.8679 473.954 0.342462 -0.445374 0.827262
11.6772 -71.9555 473.992 0.338305 -0.484912 0.80648
11.4898 -72.0171 474.014 0.269551 -0.516905 0.812497
11.3 -72.0698 474.032 0.311427 -0.497022 0.809927
11.1237 -72.1619 474.072 0.307393 -0.490283 0.815556
10.9386 -72.2279 474.097 0.313879 -0.50247 0.805608
10.7516 -72.2899 474.12 0.291147 -0.481468 0.826694
10.5655 -72.3528 474.143 0.221064 -0.473169 0.852785
10.3757 -72.4063 474.161 0.205644 -0.483157 0.85104
10.1856 -72.4584 474.179 0.210536 -0.501728 0.839014
9.99583 -72.5113 474.197 0.168274 -0.533567 0.828849
9.80567 -72.5631 474.214 0.148347 -0.580046 0.800962
9.6106 -72.6012 474.223 0.147222 -0.623334 0.767972
9.4083 -72.6192 474.221 0.130234 -0.631235 0.764579
9.2155 -72.6625 474.233 0.137553 -0.616721 0.77507
9.02063 -72.7018 474.243 0.124888 -0.629349 0.767022
8.82925 -72.7504 474.258 0.131335 -0.667473 0.73296
8.62798 -72.7711 474.257 0.105173 -0.64211 0.759364
8.42403 -72.7842 474.252 0.0832266 -0.603817 0.792766
8.21808 -72.7919 474.244 0.0657137 -0.598599 0.798349
8.02171 -72.8266 474.252 0.0547476 -0.586296 0.808245
7.82319 -72.8555 474.256 0.072525 -0.596948 0.798995
7.62001 -72.8712 474.252 -0.0132633 -0.588732 0.808219
7.40425 -72.8518 474.229 -0.00394803 -0.581814 0.813312
7.20835 -72.8883 474.237 0.0249183 -0.592442 0.805228
7.00171 -72.8947 474.228 -0.0905233 -0.595478 0.798255
6.78702 -72.8789 474.206 -0.0614011 -0.630673 0.773616
6.57343 -72.8663 474.187 -0.00580375 -0.617788 0.786323
6.36687 -72.8735 474.178 -0.0486233 -0.591894 0.804548
6.15825 -72.8751 474.167 -0.0835536 -0.587087 0.8052
5.94819 -72.8728 474.153 -0.0991236 -0.577532 0.810328
5.73365 -72.8583 474.132 -0.141284 -0.571113 0.808621
5.51242 -72.8256 474.101 -0.16698 -0.553556 0.8159
5.29715 -72.8095 474.079 -0.141997 -0.558177 0.817481
5.08065 -72.7903 474.056 -0.164265 -0.579258 0.798422
4.8582 -72.7549 474.023 -0.223278 -0.561216 0.796984
4.63081 -72.7061 473.983 -0.217198 -0.556054 0.802265
4.40658 -72.6664 473.947 -0.194307 -0.542218 0.817462
4.18892 -72.645 473.922 -0.238561 -0.50619 0.82877
3.95605 -72.5821 473.874 -0.253283 -0.496804 0.83008
3.72781 -72.5323 473.833 -0.274398 -0.481194 0.832561
3.49479 -72.4697 473.785 -0.301331 -0.47551 0.826493
3.2575 -72.3959 473.73 -0.321643 -0.468406 0.822886
3.01844 -72.3176 473.673 -0.311854 -0.433729 0.845356
2.79353 -72.2782 473.638 -0.318505 -0.42914 0.845218
2.54088 -72.1637 473.56 -0.369788 -0.389374 0.843591
2.29432 -72.0663 473.491 -0.391333 -0.325684 0.860691
2.04018 -71.9452 473.413 -0.427563 -0.341446 0.837021
1.77348 -71.7979 473.313 -0.455537 -0.351243 0.817994
1.51878 -71.68 473.233 -0.459105 -0.364128 0.81033
1.26021 -71.5522 473.147 -0.480952 -0.399677 0.780348
0.988595 -71.3898 473.042 -0.507715 -0.382421 0.771997
0.718852 -71.2262 472.943 -0.501181 -0.36881 0.782814
0.461153 -71.1093 472.857 -0.549883 -0.39555 0.735641
0.159448 -70.8683 472.706 -0.569068 -0.418266 0.707966
-0.0952288 -70.7538 472.628 -0.54998 -0.472895 0.688399
-0.358613 -70.6166 472.537 -0.579975 -0.521071 0.62619
-0.637285 -70.4392 472.423 -0.616947 -0.516937 0.593424
-0.936469 -70.208 472.278 -0.642056 -0.521671 0.561804
-1.24432 -69.9544 472.121 -0.665837 -0.512934 0.541811
-1.53906 -69.7366 471.983 -0.658862 -0.528456 0.535383
-1.82208 -69.5507 471.865 -0.661029 -0.578461 0.477938
-2.11961 -69.3271 471.724 -0.688084 -0.608732 0.394949
-2.42431 -69.0853 471.573 -0.707474 -0.600152 0.373226
-2.75237 -68.7827 471.385 -0.697254 -0.608573 0.378782
-3.04566 -68.5726 471.259 -0.679992 -0.634585 0.367303
17.9917 -66.4565 471.576 0.789153 -0.377047 0.484843
17.8482 -66.6582 471.678 0.796521 -0.419298 0.435595
17.6984 -66.84 471.769 0.793159 -0.476131 0.379733
17.5489 -67.0222 471.86 0.788986 -0.502455 0.35361
17.391 -67.1783 471.937 0.770677 -0.513644 0.37713
17.2376 -67.3477 472.02 0.78486 -0.480966 0.390725
17.0865 -67.5239 472.108 0.799893 -0.443838 0.403953
16.9374 -67.706 472.199 0.779563 -0.423727 0.461234
16.781 -67.8651 472.277 0.762622 -0.373342 0.528226
16.6355 -68.0572 472.374 0.710683 -0.359589 0.60467
16.4757 -68.2052 472.446 0.708871 -0.373283 0.598466
16.3264 -68.385 472.535 0.728735 -0.364564 0.579688
16.1687 -68.5386 472.61 0.697289 -0.378254 0.608861
16.0113 -68.6937 472.684 0.684528 -0.38758 0.617416
15.8553 -68.8514 472.763 0.678762 -0.383959 0.625985
15.6987 -69.0086 472.837 0.672732 -0.39033 0.628549
15.5386 -69.152 472.911 0.654754 -0.391682 0.646439
15.3784 -69.2963 472.982 0.616352 -0.385666 0.686565
15.2152 -69.4327 473.044 0.599968 -0.392826 0.696941
15.0535 -69.5721 473.111 0.645101 -0.375409 0.665517
14.8934 -69.716 473.181 0.605737 -0.339628 0.719538
14.7325 -69.8575 473.248 0.513601 -0.363611 0.777175
14.5582 -69.9585 473.293 0.552964 -0.378849 0.742094
14.3933 -70.0874 473.354 0.549653 -0.352104 0.757565
14.221 -70.1943 473.403 0.519007 -0.329983 0.788507
14.0565 -70.324 473.464 0.510684 -0.302864 0.804659
13.8888 -70.4438 473.52 0.487596 -0.309321 0.816438
13.7223 -70.5672 473.577 0.5254 -0.297566 0.797126
13.5588 -70.699 473.64 0.489916 -0.287752 0.82291
13.3887 -70.8111 473.691 0.427633 -0.282312 0.858737
13.2131 -70.907 473.734 0.42379 -0.264095 0.866404
13.0436 -71.0204 473.786 0.39466 -0.278068 0.875741
12.8704 -71.123 473.832 0.380433 -0.285015 0.879794
12.6984 -71.229 473.88 0.397 -0.284213 0.872705
12.5235 -71.3262 473.922 0.353724 -0.299937 0.885955
12.3468 -71.4181 473.962 0.365936 -0.298649 0.881419
12.1769 -71.5296 474.013 0.330658 -0.316479 0.889104
11.9886 -71.5875 474.034 0.279292 -0.321953 0.904623
11.8125 -71.6808 474.075 0.344775 -0.318045 0.883163
11.6374 -71.7768 474.117 0.307509 -0.352798 0.883726
11.4523 -71.8435 474.142 0.233575 -0.405544 0.883729
11.2648 -71.9034 474.164 0.289088 -0.454563 0.842497
11.0803 -71.9718 474.191 0.310856 -0.437631 0.843711
10.8952 -72.0386 474.216 0.254665 -0.420802 0.870673
10.7075 -72.0979 474.238 0.238944 -0.431707 0.86979
10.5186 -72.1536 474.257 0.218968 -0.432993 0.874397
10.3288 -72.2058 474.274 0.221695 -0.439664 0.870372
10.1431 -72.2731 474.3 0.22813 -0.460429 0.857882
9.95413 -72.3273 474.318 0.210665 -0.473098 0.855452
9.76389 -72.3793 474.336 0.184534 -0.468122 0.864181
9.57299 -72.4292 474.352 0.130764 -0.482629 0.866008
9.37963 -72.4723 474.364 0.0997434 -0.535353 0.838718
9.17634 -72.4872 474.36 0.138301 -0.53439 0.833847
8.98564 -72.5376 474.376 0.158974 -0.509536 0.845636
8.78705 -72.566 474.38 0.0671249 -0.481886 0.873659
8.579 -72.5676 474.368 0.0299804 -0.455422 0.889771
8.38301 -72.6035 474.376 0.0588379 -0.487913 0.870907
8.18684 -72.6389 474.384 0.0405644 -0.539763 0.840839
7.97651 -72.6344 474.369 0.0665351 -0.536364 0.84136
7.78005 -72.6692 474.376 0.0333562 -0.497214 0.866987
7.5682 -72.6608 474.359 -0.026125 -0.486015 0.87356
7.37154 -72.6951 474.366 0.0106487 -0.5224 0.852634
7.16239 -72.6946 474.353 0.00557794 -0.540914 0.841059
6.95457 -72.6979 474.343 -0.0462923 -0.496214 0.866965
6.74937 -72.7087 474.336 -0.0728167 -0.526456 0.847079
6.53979 -72.7074 474.323 -0.048509 -0.576939 0.815345
6.33307 -72.7143 474.315 -0.0610067 -0.561917 0.824941
6.11473 -72.689 474.288 -0.0982731 -0.535712 0.838663
5.89993 -72.6738 474.267 -0.111659 -0.498147 0.859873
5.68289 -72.6525 474.242 -0.161715 -0.480671 0.861861
5.46169 -72.62 474.211 -0.156769 -0.484079 0.860866
5.24684 -72.6053 474.19 -0.116844 -0.455723 0.88242
5.03416 -72.5968 474.173 -0.181592 -0.431595 0.8836
4.80238 -72.5358 474.125 -0.217044 -0.422155 0.880157
4.58605 -72.5177 474.103 -0.219884 -0.42467 0.87824
4.35455 -72.4582 474.056 -0.231018 -0.44286 0.866317
4.12435 -72.4025 474.012 -0.240771 -0.42353 0.873299
3.89611 -72.3526 473.971 -0.261681 -0.415071 0.871343
3.66663 -72.2996 473.928 -0.269143 -0.384442 0.883044
3.43273 -72.2348 473.878 -0.289282 -0.347796 0.891826
3.19932 -72.1717 473.83 -0.33469 -0.352396 0.873956
2.94815 -72.0607 473.754 -0.30207 -0.348613 0.887256
2.71818 -72.0077 473.711 -0.347414 -0.336546 0.875237
2.45451 -71.8637 473.617 -0.421387 -0.325 0.846645
2.19854 -71.741 473.534 -0.38487 -0.345326 0.855935
1.96151 -71.6721 473.48 -0.426886 -0.362484 0.828477
1.70147 -71.5378 473.393 -0.453887 -0.385492 0.803357
1.4516 -71.43 473.322 -0.443569 -0.431843 0.785339
1.19681 -71.3155 473.241 -0.510181 -0.44465 0.736208
0.919511 -71.1448 473.124 -0.543271 -0.464522 0.69934
0.655007 -70.9956 473.033 -0.514894 -0.502983 0.694184
0.390929 -70.8549 472.94 -0.5637 -0.520332 0.641481
0.122342 -70.7027 472.841 -0.561503 -0.572063 0.597878
-0.136489 -70.5773 472.757 -0.526067 -0.582106 0.620006
-0.417328 -70.3936 472.639 -0.576311 -0.52038 0.630135
-0.700694 -70.2038 472.518 -0.608178 -0.517024 0.602333
-0.976689 -70.0344 472.409 -0.646975 -0.544786 0.533509
-1.26741 -69.8265 472.277 -0.667594 -0.57763 0.469746
-1.56886 -69.591 472.13 -0.635686 -0.636482 0.436799
-1.84346 -69.4274 472.024 -0.630182 -0.658589 0.411255
-2.1373 -69.2136 471.889 -0.684737 -0.620934 0.381545
-2.46174 -68.9197 471.709 -0.706938 -0.598842 0.376334
-2.76256 -68.6892 471.567 -0.688399 -0.608473 0.3948
-3.07087 -68.4396 471.41 -0.685139 -0.571082 0.452161
17.963 -66.3035 471.718 0.782716 -0.268913 0.561286
17.8281 -66.5322 471.835 0.807106 -0.319758 0.496321
17.6834 -66.7296 471.935 0.791389 -0.392121 0.468983
17.5351 -66.9157 472.028 0.770766 -0.461567 0.439176
17.3809 -67.0833 472.111 0.754367 -0.522923 0.39684
17.2244 -67.2434 472.189 0.77481 -0.535983 0.33525
17.0718 -67.4151 472.274 0.777868 -0.516307 0.358258
16.9138 -67.5699 472.35 0.746399 -0.529516 0.403114
16.7527 -67.7148 472.42 0.753046 -0.502052 0.425283
16.5965 -67.8742 472.498 0.755438 -0.442307 0.483403
16.4465 -68.0525 472.587 0.729598 -0.404779 0.551218
16.2899 -68.2102 472.664 0.727752 -0.386775 0.566376
16.1403 -68.3886 472.753 0.707761 -0.402797 0.580369
15.9827 -68.5417 472.829 0.683245 -0.403926 0.608293
15.8232 -68.69 472.9 0.679966 -0.382851 0.625357
15.6677 -68.8498 472.977 0.658619 -0.384419 0.646872
15.5048 -68.9854 473.045 0.628739 -0.407798 0.662109
15.3402 -69.1183 473.105 0.625827 -0.413272 0.661473
15.1803 -69.2638 473.175 0.616689 -0.402306 0.676642
15.0163 -69.397 473.238 0.595197 -0.415439 0.68786
14.8451 -69.5076 473.289 0.606639 -0.402577 0.685508
14.6855 -69.653 473.359 0.564266 -0.382495 0.731643
14.5192 -69.7781 473.418 0.530077 -0.404437 0.745284
14.3515 -69.8988 473.474 0.533249 -0.417735 0.735624
14.1826 -70.0158 473.528 0.521179 -0.422383 0.741597
14.0108 -70.124 473.577 0.546693 -0.389596 0.741176
13.8487 -70.2607 473.643 0.520475 -0.362816 0.772962
13.6751 -70.3632 473.689 0.521332 -0.356765 0.775198
13.5101 -70.4907 473.749 0.471582 -0.335847 0.815363
13.329 -70.5708 473.782 0.425021 -0.335639 0.840657
13.1632 -70.6958 473.84 0.462335 -0.339131 0.81929
12.9918 -70.8039 473.89 0.429846 -0.353814 0.830691
12.8129 -70.8901 473.926 0.407472 -0.330452 0.851333
