18.1913 -48.2829 477.27 0.982599 -0.0183216 0.184835
18.1533 -48.4743 477.41 0.983893 -0.048478 0.172059
18.1312 -48.6821 477.553 0.984868 -0.0525226 0.165153
18.0896 -48.8723 477.69 0.975983 -0.0763955 0.204014
18.0318 -49.0483 477.822 0.978076 -0.0641626 0.198118
18.0021 -49.2485 477.963 0.973111 -0.0304598 0.228313
17.9601 -49.438 478.099 0.968996 -0.0328007 0.244888
17.9143 -49.6239 478.235 0.966553 -0.0453352 0.25243
17.8772 -49.814 478.376 0.952936 -0.0771795 0.293183
17.8004 -49.9754 478.499 0.944739 -0.101188 0.311815
17.7313 -50.1402 478.627 0.922147 -0.119254 0.367999
17.6699 -50.3117 478.757 0.921341 -0.11211 0.372239
17.5963 -50.4723 478.884 0.917626 -0.104656 0.383418
17.5058 -50.6204 479.003 0.904516 -0.0759422 0.419624
17.4565 -50.7997 479.14 0.917024 -0.0631262 0.393804
17.3799 -50.9573 479.266 0.937575 -0.0893736 0.336105
17.3416 -51.1491 479.403 0.936953 -0.133416 0.322985
17.2407 -51.2849 479.521 0.888711 -0.201071 0.412023
17.1658 -51.4438 479.647 0.881166 -0.236108 0.409633
17.0552 -51.5708 479.763 0.886547 -0.209823 0.412322
16.9674 -51.7182 479.885 0.859707 -0.182212 0.477182
16.8624 -51.8501 480.003 0.864485 -0.167315 0.473995
16.7857 -52.0071 480.128 0.831522 -0.206688 0.515608
16.6585 -52.1193 480.239 0.811725 -0.247778 0.528875
16.5555 -52.2529 480.356 0.845739 -0.199373 0.49495
16.4496 -52.384 480.473 0.878698 -0.157413 0.450678
16.3806 -52.5477 480.601 0.885957 -0.20099 0.41795
16.2809 -52.6841 480.719 0.814299 -0.30071 0.496477
16.153 -52.7955 480.83 0.766937 -0.335117 0.54727
16.0275 -52.9088 480.941 0.77618 -0.336895 0.53296
15.8969 -53.0181 481.051 0.790241 -0.304318 0.531893
15.7765 -53.1361 481.163 0.770975 -0.286383 0.568843
15.6456 -53.2455 481.273 0.756347 -0.283146 0.589718
15.5189 -53.3574 481.384 0.776432 -0.278013 0.565563
15.3933 -53.4709 481.495 0.771912 -0.29292 0.564224
15.2666 -53.5827 481.605 0.768015 -0.294485 0.568711
15.151 -53.7059 481.72 0.765424 -0.301201 0.568687
15.0207 -53.8148 481.829 0.751453 -0.321758 0.576012
14.89 -53.9237 481.939 0.732043 -0.342192 0.589081
14.7576 -54.0313 482.048 0.666764 -0.410905 0.621757
14.5676 -54.0884 482.141 0.63667 -0.365662 0.678927
14.4298 -54.1907 482.248 0.672062 -0.284636 0.683605
14.2899 -54.2918 482.355 0.66431 -0.323794 0.673683
14.108 -54.3561 482.451 0.621782 -0.361374 0.694836
13.9643 -54.4537 482.557 0.655451 -0.37089 0.657894
13.8215 -54.5522 482.663 0.69306 -0.389931 0.606318
13.6584 -54.633 482.764 0.604917 -0.405589 0.685254
13.4976 -54.716 482.865 0.634271 -0.409982 0.65545
13.3606 -54.8192 482.973 0.644945 -0.438087 0.626199
13.1854 -54.8897 483.07 0.494363 -0.499076 0.711708
12.9866 -54.9396 483.161 0.524223 -0.511684 0.680713
12.7974 -54.9978 483.254 0.579581 -0.396654 0.711865
12.6288 -55.0742 483.353 0.567665 -0.323362 0.757095
12.4501 -55.1417 483.45 0.519835 -0.370834 0.76958
12.2913 -55.2266 483.552 0.459618 -0.472086 0.752254
12.066 -55.2538 483.635 0.524119 -0.474576 0.707161
11.8977 -55.3306 483.735 0.503809 -0.448046 0.738533
11.6777 -55.3626 483.82 0.503585 -0.434007 0.747021
11.5196 -55.4483 483.923 0.471423 -0.436301 0.766422
11.2909 -55.47 484.007 0.386578 -0.485489 0.784129
11.0777 -55.514 484.091 0.365993 -0.495526 0.78772
10.8278 -55.518 484.17 0.354157 -0.482327 0.801207
10.6171 -55.5571 484.259 0.354668 -0.446958 0.821242
10.3884 -55.5838 484.341 0.339834 -0.440896 0.830737
10.146 -55.5973 484.421 0.365739 -0.453196 0.812926
9.9521 -55.6528 484.514 0.395667 -0.466727 0.790957
9.73651 -55.6888 484.602 0.382536 -0.501181 0.776198
9.50714 -55.7145 484.685 0.35315 -0.526204 0.77356
9.28204 -55.7436 484.769 0.344294 -0.523548 0.779332
9.0368 -55.7472 484.853 0.294135 -0.513645 0.806011
8.80013 -55.7746 484.93 0.229138 -0.552043 0.801713
8.53885 -55.773 485.005 0.165214 -0.629938 0.758869
8.22207 -55.7239 485.065 0.110573 -0.595859 0.79544
7.94425 -55.7084 485.136 0.155155 -0.547617 0.822218
7.65543 -55.6837 485.204 0.16456 -0.57274 0.80305
7.3589 -55.6525 485.27 0.10348 -0.531816 0.840514
7.02734 -55.5917 485.327 0.1553 -0.491516 0.85691
6.7942 -55.6141 485.411 0.109452 -0.547513 0.829609
6.4175 -55.5163 485.456 0.0203011 -0.580167 0.814245
6.09486 -55.4638 485.516 0.0363044 -0.58237 0.812113
5.76393 -55.4045 485.573 0.0214621 -0.573133 0.819181
5.44184 -55.353 485.633 -0.0688096 -0.589796 0.804615
4.99911 -55.1993 485.662 -0.0579766 -0.619065 0.783197
4.6617 -55.1599 485.693 -0.0212341 -0.557191 0.830113
4.25396 -55.0329 485.734 -0.11112 -0.477928 0.871342
3.70341 -54.7846 485.739 -0.0942306 -0.417901 0.903592
3.38259 -54.7186 485.818 -0.040402 -0.515523 0.855923
3.00096 -54.6182 485.864 -0.219895 -0.599308 0.769725
2.37308 -54.3098 485.845 -0.264826 -0.56774 0.779447
18.1514 -45.3412 475.606 0.992922 0.118767 -0.000463688
18.1785 -45.5961 475.765 0.994329 0.0999048 0.036455
18.1932 -45.8395 475.921 0.994622 0.103221 0.0085044
18.228 -46.1011 476.082 0.994567 0.10404 -0.00342166
18.2478 -46.3488 476.239 0.996012 0.0858684 0.0242092
18.2697 -46.5981 476.396 0.996735 0.0767076 0.0252161
18.2798 -46.8366 476.549 0.995006 0.0398125 0.0915353
18.2463 -47.0353 476.689 0.992494 0.0208248 0.120504
18.2513 -47.2689 476.841 0.996407 0.0287809 0.0796483
18.2445 -47.4901 476.991 0.988603 0.0246378 0.148519
18.2038 -47.6832 477.127 0.977403 0.018714 0.210552
18.1881 -47.8975 477.272 0.988663 -0.00335373 0.150112
18.1706 -48.11 477.416 0.991727 -0.0268179 0.125533
18.1533 -48.3222 477.561 0.984962 -0.0436833 0.16716
18.1003 -48.5026 477.694 0.979894 -0.0391934 0.195634
18.0749 -48.7074 477.836 0.971564 -0.0640952 0.227938
18.0224 -48.8873 477.97 0.969101 -0.097766 0.226461
17.9629 -49.0617 478.101 0.977915 -0.0630072 0.199279
17.933 -49.2626 478.241 0.97529 -0.0496474 0.215277
17.8907 -49.4521 478.377 0.971905 -0.0696045 0.224846
17.8364 -49.6306 478.51 0.957321 -0.0839756 0.276557
17.7881 -49.8133 478.645 0.938665 -0.122882 0.322192
17.7175 -49.9767 478.773 0.928308 -0.158858 0.336168
17.6246 -50.1201 478.894 0.923668 -0.146839 0.353944
17.5563 -50.2855 479.023 0.904273 -0.159665 0.395976
17.463 -50.4284 479.144 0.928029 -0.135078 0.347154
17.4106 -50.605 479.279 0.953276 -0.0760679 0.292367
17.3702 -50.7979 479.413 0.952637 -0.0711952 0.295659
17.3092 -50.9694 479.543 0.928549 -0.121455 0.350778
17.2307 -51.1253 479.669 0.895597 -0.162448 0.414146
17.1475 -51.2769 479.792 0.866656 -0.233658 0.440807
17.0242 -51.3927 479.904 0.85304 -0.263883 0.45021
16.9322 -51.5361 480.025 0.860403 -0.208707 0.464917
16.8248 -51.6664 480.142 0.859856 -0.151154 0.487647
16.7402 -51.8164 480.265 0.823296 -0.132533 0.551923
16.6243 -51.9386 480.379 0.789431 -0.203557 0.579105
16.5089 -52.0613 480.493 0.851252 -0.223525 0.474769
16.4276 -52.2142 480.617 0.917351 -0.169182 0.360339
16.3723 -52.3902 480.749 0.897711 -0.201729 0.39169
16.2497 -52.5063 480.861 0.806132 -0.302139 0.508787
16.1318 -52.6264 480.974 0.777451 -0.344958 0.525903
16.0009 -52.7355 481.084 0.760445 -0.353443 0.544795
15.8686 -52.8432 481.193 0.761507 -0.323634 0.561577
15.7379 -52.9521 481.303 0.757345 -0.292276 0.583955
15.6072 -53.0612 481.413 0.765756 -0.272679 0.582464
15.4948 -53.1863 481.527 0.78162 -0.257822 0.567977
15.3773 -53.307 481.641 0.770414 -0.294078 0.565669
15.2469 -53.4162 481.751 0.777415 -0.323773 0.539257
15.1204 -53.5287 481.861 0.777333 -0.323725 0.539403
14.9933 -53.6412 481.972 0.757294 -0.331355 0.56277
14.8627 -53.75 482.082 0.75126 -0.336282 0.567911
14.7311 -53.8584 482.191 0.601298 -0.432995 0.671532
14.5177 -53.895 482.278 0.582651 -0.407123 0.703397
14.3772 -53.9949 482.384 0.706559 -0.288079 0.646363
14.238 -54.0969 482.492 0.672343 -0.317719 0.668588
14.1053 -54.2041 482.601 0.656516 -0.379057 0.652152
13.9484 -54.2903 482.703 0.700855 -0.370047 0.60981
13.8167 -54.3985 482.813 0.64952 -0.388255 0.653744
13.6319 -54.4604 482.907 0.63041 -0.434735 0.643109
13.4982 -54.5667 483.016 0.671823 -0.432241 0.601517
13.3238 -54.6378 483.113 0.622025 -0.433264 0.652201
13.1606 -54.7187 483.214 0.523277 -0.494772 0.693817
12.9596 -54.7667 483.304 0.436261 -0.50213 0.746687
12.7309 -54.7906 483.387 0.495724 -0.404547 0.768505
12.5543 -54.86 483.484 0.592161 -0.355327 0.723248
12.407 -54.9549 483.589 0.598563 -0.389286 0.700127
12.2233 -55.0182 483.684 0.494772 -0.413169 0.764521
12.0262 -55.07 483.776 0.484807 -0.411045 0.772013
11.8423 -55.1333 483.871 0.488622 -0.424241 0.76241
11.6429 -55.1832 483.962 0.488584 -0.458219 0.74251
11.4485 -55.2375 484.054 0.482494 -0.478726 0.733499
11.252 -55.2874 484.148 0.386303 -0.512383 0.766964
11.0208 -55.313 484.229 0.342289 -0.541832 0.767631
10.8035 -55.3477 484.315 0.313823 -0.516619 0.796631
10.5367 -55.3409 484.387 0.338945 -0.474891 0.812155
10.3201 -55.3756 484.475 0.36401 -0.442255 0.819699
10.1086 -55.4158 484.563 0.392715 -0.465439 0.793185
9.88836 -55.4486 484.649 0.426202 -0.477433 0.768381
9.68393 -55.4951 484.739 0.399576 -0.46548 0.789727
9.47137 -55.5347 484.827 0.350633 -0.488689 0.798899
9.22659 -55.5467 484.906 0.316834 -0.508425 0.8007
8.99597 -55.5669 484.992 0.313713 -0.515581 0.797346
8.75877 -55.585 485.074 0.296724 -0.551186 0.779839
8.52881 -55.615 485.155 0.124062 -0.615437 0.778361
8.17422 -55.5335 485.205 0.0745058 -0.604049 0.793457
7.8825 -55.5061 485.272 0.182495 -0.544506 0.818663
7.63424 -55.5152 485.352 0.117053 -0.542069 0.832141
7.26502 -55.4228 485.398 0.0738716 -0.563593 0.822743
6.99704 -55.4174 485.472 0.184404 -0.558291 0.808892
6.72687 -55.4059 485.547 0.121021 -0.551178 0.825565
6.41113 -55.3613 485.607 0.0258974 -0.575872 0.81713
6.08017 -55.3017 485.665 0.0248694 -0.585076 0.810597
5.7208 -55.2181 485.715 0.028786 -0.55299 0.83269
5.37681 -55.1479 485.77 -0.0229215 -0.525769 0.850319
2.86422 -54.3521 485.982 -0.204748 -0.512104 0.834163
2.27565 -54.0769 485.974 -0.21626 -0.481027 0.849615
18.1324 -45.1707 475.751 0.993829 0.110919 -0.000679881
18.151 -45.418 475.908 0.995795 0.09161 0.000887945
18.1825 -45.6769 476.068 0.995551 0.0922364 -0.0192541
18.208 -45.9301 476.227 0.991677 0.123988 0.0347015
18.2325 -46.1822 476.385 0.99271 0.108796 0.05187
18.2419 -46.4203 476.538 0.993029 0.0929858 0.0724396
18.2454 -46.6529 476.69 0.988421 0.0656697 0.13679
18.2426 -46.8796 476.839 0.994245 0.0301142 0.102814
18.2396 -47.1059 476.988 0.991813 0.017522 0.126494
18.1852 -47.2855 477.122 0.986192 -0.00125374 0.165601
18.1903 -47.5202 477.272 0.993932 0.0091277 0.109617
18.1851 -47.7427 477.421 0.994366 0.00173598 0.105984
18.1626 -47.95 477.565 0.987145 -0.0191542 0.158675
18.1128 -48.1339 477.699 0.975728 -0.0323239 0.216586
18.0842 -48.3362 477.84 0.974355 -0.0207543 0.224057
18.0469 -48.5297 477.979 0.970559 -0.0254049 0.239518
18.006 -48.721 478.116 0.959205 -0.0699503 0.273919
17.9532 -48.9014 478.249 0.973866 -0.0763658 0.213901
17.9173 -49.0966 478.387 0.979118 -0.0540343 0.195979
17.8725 -49.2832 478.523 0.965496 -0.0794278 0.248009
17.8156 -49.4575 478.657 0.962493 -0.107032 0.249302
17.7578 -49.6338 478.787 0.948829 -0.129484 0.288023
17.6831 -49.7947 478.913 0.915111 -0.153073 0.373016
17.6111 -49.9569 479.041 0.913561 -0.149477 0.378237
17.5335 -50.1144 479.166 0.913835 -0.162166 0.3723
17.458 -50.2748 479.291 0.934859 -0.188142 0.301067
17.3868 -50.4356 479.42 0.964726 -0.140536 0.222607
17.3274 -50.6092 479.551 0.954752 -0.0748285 0.287837
17.2732 -50.7866 479.683 0.921513 -0.120416 0.369208
17.179 -50.9284 479.804 0.910998 -0.141797 0.387268
17.1243 -51.1055 479.936 0.865866 -0.189099 0.463161
17.005 -51.2249 480.049 0.814067 -0.25805 0.520293
16.8874 -51.3458 480.163 0.820868 -0.234381 0.520809
16.7645 -51.462 480.275 0.834972 -0.230422 0.499727
16.6547 -51.5898 480.391 0.869311 -0.181541 0.459719
16.5911 -51.7587 480.52 0.860422 -0.203818 0.467045
16.4955 -51.8991 480.64 0.880568 -0.235971 0.410997
16.4113 -52.0495 480.763 0.920232 -0.174943 0.350096
16.3227 -52.1959 480.885 0.893839 -0.205516 0.398517
16.2367 -52.3446 481.008 0.818866 -0.295796 0.491898
16.1087 -52.456 481.118 0.769407 -0.330026 0.546897
15.9777 -52.5648 481.228 0.727767 -0.319251 0.606987
15.8274 -52.6571 481.332 0.723079 -0.294248 0.62496
15.6968 -52.7658 481.442 0.744302 -0.284627 0.604154
15.566 -52.8748 481.551 0.766584 -0.278054 0.578821
15.4388 -52.9869 481.662 0.801632 -0.244637 0.545472
15.3355 -53.1201 481.78 0.791755 -0.245202 0.559464
15.2166 -53.2396 481.893 0.766957 -0.271667 0.581355
15.0933 -53.3549 482.004 0.763863 -0.299676 0.571583
14.9624 -53.4641 482.114 0.75573 -0.322911 0.569737
14.8318 -53.5728 482.224 0.742134 -0.33039 0.583164
14.6918 -53.6741 482.331 0.560559 -0.393362 0.728725
14.4749 -53.7079 482.416 0.545929 -0.389287 0.741901
14.332 -53.8057 482.522 0.717442 -0.32489 0.616217
14.2006 -53.9144 482.632 0.719715 -0.302054 0.625119
14.0546 -54.0109 482.738 0.670168 -0.3184 0.670445
13.895 -54.0932 482.839 0.676655 -0.325758 0.660318
13.7527 -54.1931 482.945 0.677511 -0.334209 0.655197
13.6196 -54.3 483.055 0.65226 -0.394203 0.647426
13.4506 -54.3758 483.154 0.638293 -0.408321 0.652576
13.2935 -54.462 483.256 0.62832 -0.411865 0.659985
13.1449 -54.5555 483.361 0.488266 -0.475195 0.731974
12.8875 -54.5543 483.435 0.367087 -0.48135 0.795958
12.6866 -54.6026 483.526 0.502989 -0.434451 0.747164
12.5348 -54.6945 483.63 0.636764 -0.399672 0.659389
12.3755 -54.7772 483.731 0.564734 -0.47078 0.677821
12.1641 -54.8174 483.819 0.486921 -0.486106 0.725678
11.983 -54.8831 483.915 0.50155 -0.470334 0.726109
11.7854 -54.9345 484.007 0.525572 -0.445833 0.724574
11.6285 -55.0213 484.11 0.507258 -0.443588 0.738863
11.4244 -55.0673 484.199 0.469988 -0.532229 0.704161
11.2332 -55.1215 484.295 0.393329 -0.573004 0.718998
10.9967 -55.1429 484.374 0.304743 -0.544899 0.781164
10.7305 -55.1352 484.447 0.282513 -0.50925 0.812928
10.4991 -55.1582 484.529 0.314689 -0.493589 0.810766
10.2656 -55.1792 484.612 0.400347 -0.464595 0.789857
10.0671 -55.2306 484.703 0.421559 -0.442714 0.791386
9.85733 -55.2725 484.792 0.400766 -0.480954 0.779788
9.6321 -55.3011 484.877 0.400757 -0.492831 0.772341
9.41508 -55.3369 484.964 0.357956 -0.486729 0.796845
9.18499 -55.3616 485.047 0.324958 -0.488444 0.80983
8.95034 -55.3824 485.129 0.345113 -0.514438 0.785017
8.7369 -55.4217 485.218 0.320047 -0.55471 0.768028
8.47851 -55.4225 485.294 0.11589 -0.570135 0.813336
8.13002 -55.3462 485.346 0.0567182 -0.565438 0.822838
7.83595 -55.3176 485.412 0.156222 -0.569644 0.806908
7.53497 -55.2816 485.477 0.129195 -0.533542 0.835848
7.2663 -55.2724 485.552 0.100986 -0.530951 0.841364
6.93699 -55.2177 485.608 0.166023 -0.535669 0.827946
6.66869 -55.2079 485.684 0.133317 -0.516159 0.846053
6.33165 -55.1438 485.739 0.049698 -0.521793 0.851623
5.98299 -55.0691 485.792 0.00641318 -0.559658 0.828699
5.62737 -54.9887 485.844 -0.0219744 -0.601857 0.798301
5.26079 -54.8993 485.892 0.0300679 -0.532391 0.845964
2.66291 -54.031 486.084 -0.242604 -0.548877 0.799923
2.14321 -53.8142 486.094 -0.224334 -0.558248 0.79877
18.109 -44.9961 475.895 0.993628 0.111042 -0.0193131
18.1589 -45.2722 476.061 0.995487 0.0939685 -0.0132426
18.1633 -45.5064 476.213 0.998998 0.0441116 -0.00752554
18.1491 -45.7236 476.36 0.995195 0.0973649 -0.0103156
18.2192 -46.0174 476.532 0.989842 0.121732 0.0734481
18.1902 -46.2207 476.673 0.991108 0.0908335 0.0972287
18.2329 -46.489 476.836 0.996599 0.0606888 0.0557453
18.2127 -46.7 476.981 0.996526 0.0105706 0.0826075
18.1992 -46.917 477.127 0.992019 0.00561525 0.125961
18.2012 -47.1469 477.278 0.990944 0.00756684 0.134059
18.1769 -47.3545 477.42 0.99263 0.0235211 0.118878
18.1517 -47.5604 477.562 0.986731 0.0201662 0.161106
18.1273 -47.7668 477.704 0.975674 -0.0062485 0.219138
18.0932 -47.9643 477.844 0.972214 -0.0380111 0.230987
18.0447 -48.1463 477.981 0.97513 -0.0319399 0.219321
18.0091 -48.3446 478.117 0.970248 -0.00973505 0.241917
17.9774 -48.5439 478.257 0.963064 -0.0217612 0.268393
17.9335 -48.7321 478.393 0.965574 -0.050239 0.25523
17.8839 -48.9156 478.527 0.971884 -0.0451543 0.231089
17.8485 -49.11 478.667 0.96786 -0.0587279 0.244538
17.8031 -49.297 478.802 0.955279 -0.0931249 0.280659
17.7388 -49.4664 478.931 0.930339 -0.135202 0.340866
17.6535 -49.6169 479.055 0.915544 -0.168919 0.365029
17.5703 -49.7691 479.179 0.917372 -0.134999 0.374438
17.5029 -49.9354 479.308 0.935707 -0.110134 0.335145
17.4599 -50.1232 479.444 0.93535 -0.144314 0.322946
17.3713 -50.2689 479.568 0.927687 -0.163315 0.335746
17.2942 -50.43 479.69 0.955131 -0.107833 0.275858
17.254 -50.6182 479.828 0.927103 -0.131377 0.351028
17.1576 -50.7586 479.948 0.912107 -0.182489 0.367095
17.0798 -50.9151 480.073 0.883779 -0.228326 0.408414
16.9602 -51.0344 480.186 0.804114 -0.277478 0.525744
16.8504 -51.1622 480.302 0.829674 -0.232832 0.507376
16.7701 -51.3163 480.427 0.832052 -0.246656 0.49684
16.6513 -51.4364 480.54 0.893121 -0.249926 0.373994
16.5786 -51.5972 480.667 0.906222 -0.227717 0.356239
16.4674 -51.7237 480.782 0.876509 -0.226904 0.424555
16.3794 -51.8708 480.904 0.908878 -0.154007 0.387586
16.3228 -52.0458 481.036 0.885541 -0.170806 0.432021
16.2024 -52.164 481.148 0.806241 -0.285933 0.517898
16.0716 -52.2728 481.258 0.730285 -0.354712 0.583835
15.9145 -52.3587 481.36 0.705002 -0.351404 0.616026
15.7833 -52.4676 481.47 0.73309 -0.307095 0.606854
15.658 -52.5813 481.581 0.756334 -0.285019 0.588831
15.5328 -52.6954 481.692 0.76585 -0.277102 0.580248
15.4143 -52.8152 481.806 0.801558 -0.278423 0.529136
15.2951 -52.9345 481.919 0.802776 -0.279334 0.526804
15.1691 -53.0479 482.03 0.784928 -0.250633 0.566631
15.0595 -53.1755 482.145 0.77439 -0.278443 0.568146
14.9293 -53.2851 482.255 0.755654 -0.345251 0.556586
14.7986 -53.3937 482.365 0.691051 -0.413709 0.592701
14.6122 -53.4544 482.459 0.549748 -0.439209 0.710544
14.4416 -53.5284 482.558 0.594959 -0.37871 0.708945
14.3027 -53.6304 482.665 0.700358 -0.346543 0.624025
14.1432 -53.7143 482.767 0.706442 -0.346536 0.617133
14.0117 -53.8232 482.877 0.689502 -0.366907 0.624474
13.8646 -53.9169 482.981 0.695021 -0.394398 0.601162
13.7313 -54.0246 483.091 0.72796 -0.394067 0.561057
13.5856 -54.1207 483.196 0.6584 -0.405257 0.634253
13.417 -54.1969 483.295 0.633309 -0.385216 0.671214
13.2747 -54.2961 483.402 0.613853 -0.412006 0.673376
13.0666 -54.3377 483.49 0.436969 -0.463502 0.770859
12.8618 -54.3824 483.579 0.382409 -0.481145 0.788836
12.6522 -54.4231 483.667 0.546443 -0.44965 0.706552
12.4959 -54.5102 483.77 0.659512 -0.341424 0.669682
12.3544 -54.6102 483.877 0.530485 -0.32132 0.784436
12.1418 -54.6485 483.965 0.476717 -0.364863 0.79976
11.9649 -54.7179 484.062 0.488652 -0.459735 0.741528
11.7485 -54.7531 484.148 0.513116 -0.473434 0.715942
11.57 -54.8212 484.245 0.582556 -0.398887 0.708179
11.4247 -54.9182 484.351 0.485249 -0.457797 0.744953
11.1898 -54.9343 484.434 0.337987 -0.512364 0.78946
10.9334 -54.9373 484.509 0.268013 -0.492698 0.827899
10.6909 -54.9513 484.588 0.279738 -0.500822 0.819099
10.4443 -54.9616 484.666 0.318722 -0.509963 0.79897
10.2137 -54.9851 484.749 0.387013 -0.472429 0.791853
10.0026 -55.0256 484.838 0.452854 -0.429858 0.781118
9.8126 -55.0845 484.932 0.414536 -0.45799 0.786388
9.59032 -55.1157 485.018 0.374984 -0.499087 0.781216
9.36955 -55.1483 485.104 0.34415 -0.504689 0.791739
9.11987 -55.1565 485.182 0.35836 -0.502893 0.78656
8.93151 -55.2151 485.278 0.377441 -0.523926 0.763571
8.68635 -55.2267 485.357 0.276753 -0.533743 0.799078
8.41273 -55.2166 485.428 0.106739 -0.540203 0.834738
8.0755 -55.1499 485.484 0.0865691 -0.541658 0.836129
7.80489 -55.1406 485.557 0.123332 -0.536468 0.83486
7.4753 -55.0828 485.613 0.11133 -0.563508 0.818574
7.17169 -55.0438 485.679 0.11044 -0.572307 0.812568
6.87051 -55.0099 485.744 0.134992 -0.547448 0.82588
6.59201 -54.9936 485.816 0.112661 -0.527704 0.841924
6.25602 -54.9295 485.872 0.0743927 -0.52263 0.849308
5.99013 -54.9254 485.947 0.0445127 -0.541662 0.839417
5.62735 -54.8389 485.997 -0.063804 -0.591084 0.804083
5.1876 -54.687 486.026 -0.044806 -0.620328 0.783062
2.64599 -53.8663 486.234 -0.253964 -0.590405 0.76611
2.14976 -53.6692 486.25 -0.238981 -0.582444 0.776947
18.0114 -44.2919 475.714 0.985726 0.147259 -0.0816023
18.0673 -44.5741 475.882 0.989609 0.122562 -0.0751777
18.1017 -44.8362 476.044 0.993046 0.115102 -0.0247303
18.127 -45.0899 476.202 0.991058 0.133221 0.00750327
18.183 -45.3715 476.37 0.991638 0.0788738 0.10214
18.1484 -45.57 476.51 0.996121 0.0695708 0.0538868
18.1604 -45.811 476.665 0.994385 0.102196 0.0274533
18.1924 -46.0699 476.825 0.996165 0.085865 0.0167957
18.2212 -46.3258 476.984 0.998442 0.0534427 0.0160718
18.2112 -46.5461 477.131 0.992721 0.0104256 0.119988
18.1936 -46.7594 477.276 0.995111 -0.0220792 0.0962623
18.1479 -46.9471 477.412 0.991942 -0.000496898 0.126693
18.1421 -47.1717 477.559 0.986156 0.0275056 0.163525
18.1256 -47.3846 477.705 0.98357 0.0150575 0.179899
18.0998 -47.5898 477.847 0.980255 -0.0031942 0.197712
18.0676 -47.7879 477.988 0.974051 -0.0410588 0.222574
18.0238 -47.9779 478.123 0.970747 -0.0609062 0.232252
17.9745 -48.1616 478.258 0.977157 -0.0441772 0.207877
17.9393 -48.3593 478.395 0.972166 -0.0119342 0.23399
17.9071 -48.5577 478.535 0.961907 -0.0223756 0.272461
17.8602 -48.7421 478.671 0.96762 -0.0282238 0.250828
17.8276 -48.9402 478.811 0.963781 -0.0416213 0.263428
17.761 -49.1095 478.938 0.95032 -0.0900182 0.297974
17.7063 -49.2858 479.072 0.933083 -0.127663 0.336241
17.6348 -49.4487 479.2 0.894088 -0.162352 0.417431
17.5343 -49.5855 479.319 0.920023 -0.129189 0.369956
17.491 -49.7736 479.455 0.946094 -0.0871085 0.311959
17.4079 -49.9258 479.579 0.931495 -0.118187 0.344019
17.3485 -50.0993 479.71 0.918466 -0.130856 0.373226
17.2765 -50.2614 479.837 0.940106 -0.109586 0.322788
17.2088 -50.4254 479.967 0.938154 -0.118734 0.325222
17.1495 -50.6005 480.096 0.911158 -0.16634 0.376992
17.0641 -50.7503 480.219 0.851497 -0.22187 0.475107
16.9414 -50.8668 480.331 0.782385 -0.253475 0.56888
16.8117 -50.977 480.442 0.832799 -0.195665 0.517842
16.7143 -51.1161 480.561 0.868325 -0.157077 0.470466
16.6439 -51.2791 480.689 0.881035 -0.203693 0.42695
16.538 -51.4105 480.806 0.875978 -0.221482 0.428496
16.4495 -51.5572 480.928 0.860919 -0.247154 0.444671
16.3358 -51.6817 481.042 0.911329 -0.208305 0.35509
16.2627 -51.842 481.169 0.904343 -0.179566 0.387195
16.181 -51.9946 481.293 0.804263 -0.268331 0.530244
16.0502 -52.1038 481.402 0.70782 -0.352052 0.612414
15.902 -52.1975 481.507 0.68394 -0.358276 0.635503
15.7494 -52.2876 481.611 0.731341 -0.311092 0.606928
15.6188 -52.3965 481.721 0.759389 -0.297814 0.578477
15.4883 -52.5058 481.831 0.796468 -0.274847 0.538608
15.3899 -52.6436 481.949 0.807392 -0.298678 0.508832
15.2593 -52.7529 482.059 0.774289 -0.349698 0.527434
15.1286 -52.8624 482.169 0.810899 -0.296582 0.504462
15.0322 -53.0015 482.289 0.820553 -0.28461 0.495671
14.9177 -53.125 482.403 0.771352 -0.334137 0.541635
14.7866 -53.2338 482.513 0.627831 -0.421295 0.654476
14.5911 -53.286 482.604 0.514062 -0.46695 0.719512
14.3978 -53.3401 482.696 0.636462 -0.397503 0.66099
14.266 -53.4484 482.806 0.704435 -0.343443 0.621143
14.1271 -53.5505 482.913 0.716049 -0.359337 0.598457
13.9957 -53.6595 483.023 0.719879 -0.361291 0.592657
13.8489 -53.7537 483.128 0.714506 -0.356083 0.602235
13.7149 -53.8606 483.237 0.688993 -0.388522 0.611833
13.5391 -53.9304 483.334 0.623044 -0.437939 0.648094
13.3797 -54.0146 483.436 0.652323 -0.433966 0.621408
13.2262 -54.104 483.54 0.569948 -0.447726 0.688985
13.0334 -54.1591 483.632 0.430435 -0.464902 0.773688
12.8135 -54.1908 483.717 0.429438 -0.477734 0.766389
12.6208 -54.249 483.808 0.506905 -0.455645 0.731734
12.4253 -54.2992 483.902 0.552482 -0.373392 0.745213
12.2095 -54.3346 483.989 0.543259 -0.312533 0.779226
12.0668 -54.4338 484.095 0.578619 -0.303334 0.757092
11.9206 -54.53 484.201 0.515497 -0.42163 0.745984
11.7133 -54.5729 484.29 0.474561 -0.488572 0.732181
11.5307 -54.6376 484.386 0.590641 -0.414839 0.692135
11.3583 -54.7111 484.485 0.476257 -0.438374 0.762238
11.1261 -54.7329 484.567 0.294348 -0.485486 0.823203
10.8778 -54.7434 484.644 0.280561 -0.49124 0.824602
10.6379 -54.7562 484.725 0.302679 -0.507363 0.806826
10.4069 -54.7795 484.808 0.307437 -0.517112 0.798798
10.161 -54.7899 484.887 0.373343 -0.491034 0.787084
9.96131 -54.8404 484.979 0.463389 -0.463093 0.755524
9.76313 -54.8923 485.071 0.43998 -0.479509 0.759268
9.55198 -54.9358 485.158 0.367741 -0.504371 0.781266
9.31345 -54.9505 485.241 0.345155 -0.530092 0.774513
9.10896 -54.9972 485.331 0.384773 -0.53951 0.748919
8.8793 -55.0224 485.415 0.349418 -0.517521 0.781076
8.63114 -55.0318 485.494 0.230289 -0.525286 0.819171
8.35017 -55.0133 485.564 0.0992359 -0.556071 0.825189
8.01825 -54.9512 485.621 0.0833948 -0.568489 0.818453
7.71395 -54.913 485.685 0.147411 -0.53177 0.833961
7.457 -54.9156 485.762 0.122329 -0.552318 0.824609
7.15537 -54.8801 485.827 0.0848927 -0.604439 0.792115
6.83238 -54.8265 485.887 0.111047 -0.546065 0.83035
6.52026 -54.7825 485.95 0.0974295 -0.529029 0.842992
6.20235 -54.7338 486.011 0.0687406 -0.580047 0.811678
5.85182 -54.6575 486.064 0.066561 -0.559331 0.826268
5.54577 -54.6194 486.129 -0.0213192 -0.539454 0.841745
5.18488 -54.5347 486.179 -0.0956613 -0.594817 0.798149
2.55336 -53.6371 486.364 -0.256911 -0.5884 0.766669
1.96978 -53.3659 486.358 -0.244527 -0.562357 0.789912
18.0027 -44.1304 475.863 0.984107 0.158185 -0.0806903
18.0571 -44.4113 476.03 0.989699 0.143101 -0.00434034
18.0697 -44.6537 476.185 0.991833 0.122237 0.0364035
18.0993 -44.9115 476.345 0.993979 0.109232 -0.00864757
18.1071 -45.1491 476.498 0.994128 0.0890233 0.0615209
18.1261 -45.3968 476.655 0.994864 0.0725066 0.0706255
18.1553 -45.6534 476.814 0.995436 0.0946441 -0.0122135
18.1864 -45.9118 476.974 0.992851 0.115432 0.0303769
18.1924 -46.1469 477.126 0.985511 0.0987704 0.137883
18.176 -46.3616 477.271 0.987231 0.0664384 0.144779
18.1932 -46.6066 477.426 0.98427 -0.00489917 0.176602
18.1335 -46.7815 477.558 0.986887 -0.0284382 0.158886
18.1306 -47.0081 477.707 0.988516 0.0173968 0.150109
18.0831 -47.1939 477.843 0.981952 0.0237268 0.187636
18.0835 -47.423 477.993 0.98404 -0.00286942 0.177922
18.0357 -47.6083 478.128 0.975525 -0.0347903 0.217121
18.0088 -47.8134 478.268 0.973705 -0.067946 0.217444
17.9545 -47.9919 478.402 0.972645 -0.0909619 0.213745
17.9052 -48.1757 478.536 0.979262 -0.0639397 0.192243
17.8638 -48.364 478.676 0.976065 -0.0465416 0.212438
17.8275 -48.5599 478.813 0.968594 -0.0284353 0.247016
17.7812 -48.7469 478.947 0.960685 -0.0139515 0.27729
17.7588 -48.9529 479.091 0.944358 -0.0658971 0.322251
17.6735 -49.1031 479.215 0.92018 -0.136911 0.366775
17.5869 -49.2543 479.336 0.899437 -0.165318 0.404577
17.5107 -49.4131 479.463 0.929972 -0.152097 0.334692
17.4414 -49.5778 479.591 0.954696 -0.11505 0.274442
17.4023 -49.7697 479.728 0.932776 -0.14322 0.330781
17.3021 -49.9066 479.847 0.932619 -0.147297 0.329433
17.2503 -50.0869 479.98 0.945964 -0.122486 0.300249
17.1888 -50.2584 480.11 0.943157 -0.135982 0.303256
17.1147 -50.4185 480.237 0.903108 -0.196099 0.382022
16.9946 -50.5374 480.35 0.821802 -0.233107 0.519906
16.8839 -50.6646 480.465 0.776773 -0.255613 0.575574
16.7593 -50.7795 480.577 0.843548 -0.224437 0.487908
16.6963 -50.9493 480.707 0.912368 -0.159601 0.376978
16.6118 -51.0998 480.83 0.886258 -0.193174 0.420987
16.514 -51.2385 480.949 0.873402 -0.191222 0.447887
16.4336 -51.3926 481.074 0.875262 -0.212846 0.434296
16.3394 -51.5344 481.194 0.890905 -0.234858 0.388755
16.2563 -51.6859 481.318 0.896831 -0.239123 0.372176
16.1367 -51.805 481.431 0.807109 -0.277855 0.520933
16.0056 -51.9139 481.54 0.687085 -0.295995 0.663552
15.8386 -51.9911 481.64 0.664458 -0.305121 0.6822
15.7076 -52.1 481.75 0.738142 -0.296201 0.606144
15.5909 -52.2215 481.863 0.771523 -0.30881 0.556227
15.4661 -52.3361 481.975 0.832422 -0.309973 0.459337
15.3763 -52.4812 482.096 0.828712 -0.324629 0.455908
15.2455 -52.5907 482.206 0.757817 -0.35472 0.547619
15.1146 -52.7002 482.316 0.812944 -0.319633 0.486781
15.008 -52.8302 482.433 0.82283 -0.284597 0.491889
14.8773 -52.9392 482.542 0.746546 -0.296401 0.595664
14.7301 -53.0341 482.648 0.604897 -0.372241 0.703943
14.5434 -53.0941 482.742 0.512948 -0.405662 0.75652
14.373 -53.1688 482.84 0.627367 -0.37503 0.682468
14.2279 -53.2647 482.946 0.730156 -0.354213 0.5843
14.0963 -53.3736 483.056 0.720965 -0.360562 0.591781
13.9411 -53.4614 483.159 0.706494 -0.33254 0.624727
13.8089 -53.5696 483.268 0.716497 -0.290901 0.634041
13.6723 -53.6734 483.376 0.6847 -0.316672 0.656433
13.5355 -53.7776 483.484 0.634937 -0.395998 0.663356
13.3709 -53.8573 483.585 0.616451 -0.472218 0.630078
13.1919 -53.9244 483.681 0.51265 -0.484641 0.708741
12.9689 -53.9532 483.766 0.442747 -0.474628 0.760726
12.7914 -54.0189 483.864 0.443634 -0.489351 0.750816
12.5688 -54.0511 483.947 0.446964 -0.492222 0.746954
12.3692 -54.1006 484.038 0.484579 -0.44734 0.751711
12.2045 -54.1806 484.139 0.566469 -0.412458 0.713436
12.0279 -54.2504 484.236 0.674862 -0.356867 0.645916
11.8949 -54.3579 484.346 0.563824 -0.384109 0.731138
11.6807 -54.395 484.433 0.462492 -0.437515 0.771156
11.4873 -54.4503 484.526 0.549791 -0.431656 0.715124
11.3193 -54.5264 484.626 0.438745 -0.485719 0.756029
11.0724 -54.5368 484.704 0.290605 -0.520986 0.802572
10.8282 -54.5551 484.78 0.300889 -0.523104 0.797388
10.6016 -54.5729 484.869 0.312287 -0.520602 0.794638
10.352 -54.5874 484.943 0.306285 -0.516787 0.79945
10.1227 -54.6072 485.029 0.382191 -0.522618 0.762103
9.92266 -54.6574 485.12 0.467373 -0.514249 0.719104
9.72732 -54.7092 485.215 0.432081 -0.514109 0.740944
9.50421 -54.7427 485.299 0.38266 -0.542425 0.747895
9.30267 -54.7917 485.39 0.367891 -0.554831 0.746203
9.05973 -54.8053 485.47 0.35052 -0.515192 0.782121
8.82601 -54.8253 485.554 0.316455 -0.492712 0.810612
8.58697 -54.8387 485.638 0.227443 -0.500753 0.835174
8.2987 -54.8194 485.703 0.123387 -0.489634 0.863154
7.98781 -54.7753 485.766 0.0833904 -0.504307 0.859488
7.66136 -54.7181 485.824 0.160925 -0.530907 0.83201
7.40738 -54.7207 485.903 0.165865 -0.552289 0.816986
7.09021 -54.6745 485.963 0.0526009 -0.556967 0.828867
6.72549 -54.5852 486.012 0.100241 -0.513248 0.852366
6.4797 -54.5973 486.093 0.144095 -0.50787 0.849297
6.17632 -54.5617 486.158 0.0583109 -0.550882 0.832543
5.84511 -54.5018 486.216 0.0214313 -0.585052 0.810713
5.48046 -54.4136 486.265 0.00797596 -0.564585 0.825336
5.12003 -54.3294 486.316 -0.052904 -0.5297 0.846534
2.54105 -53.4761 486.515 -0.265682 -0.577455 0.771983
1.91333 -53.1672 486.498 -0.273651 -0.592628 0.757567
17.985 -43.9606 476.008 0.986584 0.10012 -0.128949
17.9943 -44.2004 476.162 0.992899 0.108053 -0.0497709
18.0658 -44.4968 476.335 0.99158 0.129335 -0.00645999
18.0936 -44.753 476.494 0.995875 0.0906891 0.00295716
18.118 -45.0059 476.653 0.998635 0.0516725 -0.00768674
18.1219 -45.2398 476.804 0.997514 0.06959 0.0111277
18.1311 -45.4785 476.958 0.996008 0.0830146 0.0328025
18.1225 -45.7007 477.105 0.993528 0.0899078 0.0694106
18.1379 -45.9446 477.26 0.986896 0.108236 0.119674
18.1627 -46.1968 477.418 0.987298 0.0911223 0.130151
18.1424 -46.4068 477.563 0.976183 0.0507126 0.210938
18.1249 -46.6214 477.706 0.96996 -0.000140767 0.243265
18.0656 -46.7968 477.839 0.985193 0.000109353 0.171451
18.0761 -47.034 477.993 0.992437 0.00719096 0.122548
18.0475 -47.2382 478.133 0.985307 -0.00896143 0.170559
18.0175 -47.4382 478.275 0.978004 -0.0134177 0.208156
17.9923 -47.6455 478.415 0.973607 -0.0402332 0.224658
17.9403 -47.8268 478.549 0.967194 -0.0752427 0.242639
17.903 -48.0213 478.687 0.975745 -0.0898481 0.199623
17.8506 -48.2016 478.821 0.97393 -0.0963685 0.205362
17.7933 -48.3794 478.952 0.970676 -0.0833342 0.225486
17.7448 -48.564 479.086 0.973534 -0.040377 0.224946
17.7033 -48.7528 479.224 0.951809 -0.0505522 0.302495
17.6437 -48.9266 479.355 0.916331 -0.131998 0.37804
17.5743 -49.0916 479.483 0.918721 -0.153675 0.36378
17.5008 -49.2528 479.61 0.927491 -0.117585 0.354871
17.4405 -49.4257 479.741 0.943898 -0.103125 0.313722
17.3611 -49.5815 479.866 0.925198 -0.109162 0.363445
17.301 -49.7545 479.997 0.926198 -0.121637 0.356879
17.2306 -49.9181 480.125 0.952754 -0.13623 0.27148
17.1678 -50.0885 480.255 0.938059 -0.132393 0.320184
17.0969 -50.2515 480.382 0.857611 -0.193716 0.476421
16.9708 -50.3652 480.493 0.805056 -0.239816 0.542562
16.8705 -50.5018 480.612 0.807402 -0.249445 0.534676
16.7488 -50.6193 480.725 0.862264 -0.218853 0.456731
16.6648 -50.7704 480.848 0.913004 -0.173087 0.369413
16.5772 -50.9183 480.971 0.873591 -0.196332 0.4453
16.4729 -51.0512 481.088 0.885826 -0.174137 0.430102
16.4024 -51.2143 481.215 0.888621 -0.150526 0.433238
16.3062 -51.3543 481.335 0.871941 -0.133105 0.471172
16.2262 -51.5087 481.46 0.839461 -0.206968 0.502463
16.0955 -51.6179 481.57 0.737264 -0.318732 0.595694
15.9409 -51.7062 481.673 0.688021 -0.344604 0.638651
15.8097 -51.815 481.782 0.717983 -0.341418 0.606577
15.6822 -51.9271 481.893 0.7774 -0.300625 0.552516
15.5616 -52.0454 482.006 0.810599 -0.241616 0.533433
15.4721 -52.1912 482.127 0.832513 -0.261951 0.488164
15.3418 -52.3008 482.237 0.79519 -0.312262 0.519773
15.2115 -52.4108 482.348 0.76311 -0.300406 0.572206
15.0939 -52.5313 482.461 0.787091 -0.297058 0.540596
14.9632 -52.6406 482.571 0.772664 -0.295379 0.561908
14.8327 -52.7492 482.68 0.722195 -0.305048 0.620789
14.6939 -52.8522 482.788 0.586196 -0.396897 0.706291
14.4868 -52.8942 482.877 0.550545 -0.40342 0.730858
14.3392 -52.9887 482.982 0.676322 -0.34623 0.650164
14.2078 -53.0976 483.092 0.729665 -0.356406 0.583579
14.0679 -53.1983 483.199 0.684237 -0.374824 0.625561
13.9032 -53.2786 483.299 0.67966 -0.380779 0.626952
13.7595 -53.3758 483.405 0.726659 -0.339221 0.597407
13.6234 -53.4809 483.514 0.726733 -0.300608 0.617652
13.4901 -53.588 483.623 0.689378 -0.308395 0.655478
13.3471 -53.6867 483.73 0.566099 -0.38425 0.729304
13.1364 -53.7262 483.817 0.467331 -0.445468 0.763649
12.9582 -53.7942 483.914 0.457932 -0.498135 0.736315
12.7388 -53.8262 484 0.44783 -0.487826 0.749316
12.5498 -53.8848 484.093 0.419267 -0.459348 0.78308
12.3228 -53.9105 484.177 0.492912 -0.490455 0.718674
12.1467 -53.9806 484.275 0.582462 -0.462684 0.668327
11.9766 -54.056 484.374 0.633451 -0.400965 0.661791
11.8165 -54.1402 484.476 0.56443 -0.404949 0.71933
11.622 -54.1944 484.568 0.503582 -0.438809 0.744212
11.4652 -54.2815 484.671 0.549771 -0.459048 0.697873
11.2662 -54.3307 484.764 0.412588 -0.502447 0.759815
11.0358 -54.3534 484.847 0.29539 -0.528459 0.795912
10.7917 -54.3722 484.922 0.302369 -0.526141 0.794827
10.549 -54.3778 485.006 0.307194 -0.511933 0.80222
10.3137 -54.3996 485.087 0.340153 -0.51895 0.784211
10.1091 -54.4458 485.177 0.407293 -0.547429 0.73105
9.89571 -54.4852 485.265 0.447669 -0.552945 0.70274
9.69542 -54.5339 485.357 0.438659 -0.552275 0.708922
9.49581 -54.585 485.449 0.388133 -0.554783 0.735913
9.25261 -54.6006 485.528 0.324038 -0.518926 0.791021
9.00184 -54.6059 485.607 0.316137 -0.49323 0.81042
8.77829 -54.6363 485.693 0.293837 -0.476561 0.828583
8.49508 -54.6114 485.765 0.188728 -0.460248 0.867499
8.18503 -54.572 485.825 0.133225 -0.454337 0.880812
7.88456 -54.5369 485.891 0.136473 -0.464152 0.875179
7.62015 -54.5356 485.965 0.186431 -0.513699 0.837471
7.35341 -54.5272 486.041 0.140614 -0.558193 0.81771
7.02762 -54.471 486.1 0.0258532 -0.55796 0.829465
6.68035 -54.3973 486.153 0.0914137 -0.573953 0.81377
6.40362 -54.383 486.225 0.1471 -0.57893 0.801999
6.07869 -54.3282 486.285 0.0828924 -0.549728 0.83122
5.77623 -54.2929 486.351 0.0299288 -0.493818 0.86905
5.38393 -54.1811 486.393 -0.0168566 -0.514046 0.857597
5.02157 -54.0952 486.444 -0.0590744 -0.557397 0.828142
4.60273 -53.9614 486.479 -0.0737574 -0.546505 0.834201
4.23585 -53.8722 486.529 -0.0334681 -0.532663 0.845665
3.89933 -53.8092 486.587 -0.0897506 -0.523108 0.847527
3.40764 -53.6144 486.604 -0.126393 -0.504658 0.854017
2.95369 -53.4522 486.632 -0.168848 -0.522791 0.835571
2.40241 -53.2076 486.634 -0.226552 -0.508597 0.830664
18.0075 -43.8276 476.166 0.992996 0.115407 -0.0253158
18.011 -44.0621 476.319 0.995735 0.0911217 -0.0144672
18.0291 -44.3098 476.475 0.991375 0.118825 -0.0552844
18.0771 -44.5846 476.641 0.992691 0.120641 0.00307226
18.1009 -44.8371 476.798 0.995846 0.0699252 0.0583186
18.0797 -45.0482 476.943 0.996748 0.0676729 0.0437404
18.1258 -45.3207 477.107 0.997968 0.0551184 0.0319672
18.1119 -45.5382 477.253 0.999609 0.0138016 0.0243011
18.1171 -45.7729 477.405 0.998786 0.0474731 0.0131288
18.109 -45.9953 477.553 0.993653 0.0529553 0.0992453
18.1009 -46.2176 477.7 0.984486 0.044323 0.169774
18.0855 -46.4342 477.844 0.980949 0.0161323 0.193592
18.079 -46.6564 477.993 0.993181 -0.00964814 0.116181
18.058 -46.8655 478.138 0.994109 -0.0249461 0.105478
18.0152 -47.0574 478.273 0.983712 -0.0279077 0.177574
17.9924 -47.2636 478.418 0.978108 -0.00283541 0.208077
17.9487 -47.4539 478.553 0.968366 -0.00482964 0.249486
17.9235 -47.6587 478.696 0.967424 -0.0221655 0.252191
17.877 -47.8452 478.831 0.964301 -0.0410452 0.261607
17.8338 -48.0351 478.966 0.960386 -0.0741432 0.26863
17.7811 -48.2157 479.1 0.960555 -0.0941232 0.261676
17.7245 -48.3925 479.232 0.968743 -0.0863712 0.232544
17.6761 -48.5766 479.367 0.967855 -0.0883579 0.23548
17.6278 -48.7608 479.501 0.936362 -0.15393 0.315488
17.5245 -48.8953 479.619 0.913898 -0.186261 0.36069
17.4477 -49.0536 479.745 0.933493 -0.107588 0.342075
17.3922 -49.231 479.878 0.921195 -0.081934 0.380378
17.316 -49.3898 480.004 0.930754 -0.10117 0.351371
17.2644 -49.5716 480.136 0.953204 -0.0951383 0.28697
17.2177 -49.7554 480.272 0.934563 -0.13135 0.330664
17.1232 -49.8975 480.392 0.917903 -0.184325 0.351396
17.0349 -50.0451 480.515 0.857958 -0.227277 0.46071
16.9197 -50.1685 480.629 0.816432 -0.244117 0.523303
16.814 -50.3004 480.746 0.827965 -0.232163 0.510465
16.7088 -50.4328 480.864 0.868245 -0.17545 0.464077
16.646 -50.6029 480.994 0.88517 -0.151339 0.439967
16.5346 -50.7295 481.109 0.862721 -0.17425 0.47471
16.4588 -50.888 481.235 0.881524 -0.210052 0.422841
16.3402 -51.0082 481.348 0.875057 -0.200824 0.440393
16.2517 -51.1552 481.47 0.889718 -0.113769 0.442106
16.1914 -51.3272 481.6 0.837522 -0.1624 0.521711
16.0612 -51.437 481.711 0.723876 -0.308994 0.616867
15.9301 -51.5459 481.82 0.714197 -0.403859 0.571682
15.7799 -51.6381 481.925 0.731613 -0.379635 0.566233
15.6392 -51.7392 482.032 0.755674 -0.317491 0.57285
15.5089 -51.8483 482.142 0.844148 -0.231593 0.483506
15.4342 -52.0074 482.268 0.836463 -0.23423 0.495446
15.3047 -52.1177 482.378 0.755733 -0.301187 0.58151
15.1784 -52.231 482.489 0.774906 -0.27676 0.568265
15.059 -52.3503 482.602 0.766123 -0.262588 0.586603
14.9283 -52.4592 482.712 0.737815 -0.276708 0.615681
14.7927 -52.5647 482.82 0.718971 -0.296821 0.628473
14.6486 -52.6622 482.927 0.571798 -0.403943 0.714057
14.4455 -52.7078 483.016 0.573905 -0.410284 0.708731
14.312 -52.8149 483.125 0.720019 -0.311738 0.619993
14.1738 -52.9174 483.233 0.706917 -0.310626 0.635437
14.0213 -53.0078 483.337 0.679044 -0.320044 0.66066
13.889 -53.1166 483.447 0.669579 -0.352485 0.653773
13.7285 -53.1983 483.548 0.693255 -0.36969 0.618649
13.5867 -53.2989 483.655 0.713543 -0.344625 0.609991
13.4356 -53.3905 483.759 0.688879 -0.341307 0.639496
13.2798 -53.478 483.862 0.574101 -0.368608 0.731119
13.1002 -53.5447 483.959 0.517892 -0.389161 0.761802
12.9262 -53.6164 484.057 0.444454 -0.446399 0.776652
12.6844 -53.6289 484.136 0.405888 -0.459595 0.789954
12.4834 -53.6771 484.227 0.487392 -0.405984 0.773063
12.3278 -53.7651 484.33 0.511863 -0.420102 0.74934
12.1363 -53.8218 484.423 0.549904 -0.452557 0.701995
11.9575 -53.8897 484.52 0.595466 -0.424354 0.682161
11.7911 -53.9683 484.621 0.566014 -0.416349 0.711534
11.611 -54.0351 484.717 0.550998 -0.452198 0.701369
11.4263 -54.0981 484.813 0.526317 -0.476317 0.704353
11.2281 -54.1493 484.904 0.395841 -0.464282 0.792308
10.9915 -54.1652 484.987 0.301614 -0.48165 0.822826
10.7373 -54.171 485.062 0.291811 -0.510104 0.809098
10.5055 -54.194 485.145 0.326457 -0.519079 0.789925
10.2823 -54.2226 485.231 0.395968 -0.531429 0.74886
10.0847 -54.2743 485.323 0.431772 -0.522589 0.735169
9.87327 -54.3198 485.409 0.446871 -0.497277 0.743654
9.68417 -54.3753 485.506 0.424712 -0.514789 0.744723
9.4386 -54.383 485.588 0.329864 -0.516232 0.790376
9.19454 -54.3989 485.666 0.300238 -0.474033 0.827738
8.96043 -54.4204 485.749 0.293769 -0.463621 0.835916
8.68743 -54.4083 485.821 0.236351 -0.472111 0.849264
8.41468 -54.3966 485.894 0.154064 -0.504014 0.849844
8.1208 -54.367 485.961 0.122111 -0.546617 0.828431
7.83162 -54.3416 486.03 0.179567 -0.56093 0.808154
7.57751 -54.3466 486.108 0.212022 -0.545976 0.810529
7.2926 -54.3252 486.177 0.120636 -0.529751 0.83953
6.96514 -54.2675 486.236 0.0576801 -0.53673 0.84178
6.6573 -54.227 486.3 0.109167 -0.567453 0.816137
6.37873 -54.2117 486.372 0.101649 -0.587352 0.802923
6.04404 -54.1486 486.43 0.01517 -0.563217 0.82617
5.62936 -54.0173 486.466 0.0303315 -0.512295 0.858274
5.35949 -54.0101 486.541 -0.000104029 -0.551575 0.834125
4.96606 -53.8976 486.583 -0.080623 -0.586633 0.80583
4.56706 -53.7807 486.624 -0.0950292 -0.594604 0.798383
4.14713 -53.6463 486.66 -0.0768616 -0.599712 0.796516
3.71307 -53.5001 486.692 -0.111186 -0.523286 0.844872
3.24458 -53.325 486.716 -0.134173 -0.537444 0.832558
2.86941 -53.2299 486.764 -0.210869 -0.573833 0.791359
2.22993 -52.9103 486.744 -0.248502 -0.545497 0.800425
17.9088 -43.3518 476.137 0.980938 0.184197 -0.0619106
17.939 -43.6112 476.297 0.987865 0.153593 0.0230817
17.9883 -43.8877 476.463 0.992004 0.122989 0.0283272
18.0262 -44.1537 476.626 0.99345 0.113895 -0.00924259
18.0473 -44.404 476.783 0.990569 0.135202 0.0222306
18.082 -44.6666 476.944 0.991259 0.0988514 0.087371
18.0862 -44.9011 477.096 0.997429 0.0686601 0.0205272
18.1113 -45.1544 477.254 0.996788 0.0779038 0.0185417
18.1191 -45.3918 477.406 0.995287 0.0394224 0.088592
18.1028 -45.607 477.552 0.995202 0.0385032 0.0899447
18.1031 -45.8372 477.702 0.992886 0.0247009 0.116482
18.072 -46.0386 477.843 0.990239 0.0287864 0.136375
18.0718 -46.268 477.992 0.992374 0.0364528 0.117746
18.0568 -46.4838 478.138 0.993425 0.00773366 0.114224
18.0389 -46.6968 478.282 0.982619 -0.0177755 0.18478
18.0003 -46.8919 478.419 0.9771 -0.0533529 0.205982
17.9465 -47.071 478.554 0.981743 -0.0509306 0.183264
17.9227 -47.2782 478.696 0.976421 -0.0165461 0.215239
17.8794 -47.4677 478.832 0.967899 -0.0129874 0.251003
17.8407 -47.6611 478.97 0.966947 -0.0224034 0.253992
17.8073 -47.8593 479.109 0.960203 -0.0451503 0.27563
17.747 -48.0331 479.24 0.956996 -0.0600555 0.283817
17.7121 -48.2288 479.38 0.963502 -0.0655514 0.259551
17.6563 -48.4043 479.514 0.962974 -0.07564 0.258764
17.6072 -48.5889 479.647 0.92842 -0.136988 0.345357
17.5225 -48.742 479.77 0.893398 -0.223791 0.38956
17.4282 -48.8871 479.888 0.928316 -0.189944 0.31961
17.3511 -49.0427 480.016 0.949079 -0.110223 0.295127
17.3165 -49.2388 480.155 0.94911 -0.0950572 0.300256
17.2428 -49.3998 480.281 0.955858 -0.10937 0.272715
17.1843 -49.5731 480.414 0.941449 -0.110311 0.318598
17.1293 -49.7518 480.545 0.894359 -0.193344 0.403411
17.018 -49.8787 480.66 0.843499 -0.263817 0.467879
16.9081 -50.0072 480.777 0.818821 -0.253649 0.514971
16.7915 -50.1293 480.891 0.825518 -0.25616 0.502894
16.6778 -50.254 481.006 0.875274 -0.205494 0.437799
16.5842 -50.3968 481.126 0.883905 -0.161318 0.438962
16.5009 -50.5487 481.25 0.892782 -0.133642 0.43021
16.4413 -50.7217 481.381 0.868585 -0.209732 0.448968
16.3115 -50.8319 481.491 0.838414 -0.259653 0.479209
16.2199 -50.9762 481.612 0.900569 -0.187621 0.39214
16.1208 -51.1138 481.731 0.87261 -0.174113 0.45633
16.0425 -51.2698 481.856 0.793253 -0.249138 0.555589
15.9117 -51.3789 481.966 0.7 -0.371416 0.609959
15.7471 -51.4585 482.066 0.689457 -0.371678 0.621695
15.6159 -51.5677 482.176 0.757008 -0.322012 0.568548
15.4994 -51.6895 482.29 0.845251 -0.257059 0.468477
15.4008 -51.8273 482.409 0.831828 -0.253808 0.493602
15.2701 -51.9365 482.519 0.750034 -0.30797 0.585323
15.1338 -52.0413 482.627 0.75921 -0.299085 0.578056
15.0028 -52.1505 482.737 0.762048 -0.287181 0.580353
14.8764 -52.2634 482.848 0.746576 -0.296513 0.59557
14.7453 -52.3726 482.958 0.730073 -0.315282 0.606293
14.6138 -52.4809 483.068 0.581134 -0.427814 0.692285
14.4067 -52.5235 483.157 0.575304 -0.438672 0.690357
14.2584 -52.6178 483.262 0.710434 -0.319932 0.626839
14.1179 -52.7181 483.369 0.693618 -0.300784 0.65454
13.9766 -52.8185 483.476 0.703945 -0.315336 0.636415
13.8361 -52.9194 483.583 0.699942 -0.328217 0.634315
13.698 -53.023 483.691 0.681205 -0.352474 0.641655
13.5476 -53.1141 483.795 0.694276 -0.360713 0.62279
13.4097 -53.2179 483.903 0.644097 -0.387125 0.659752
13.2259 -53.2809 483.999 0.56465 -0.411315 0.715535
13.0443 -53.346 484.095 0.539564 -0.388449 0.746979
12.8569 -53.4059 484.189 0.440293 -0.414311 0.796548
12.6419 -53.4419 484.276 0.390551 -0.464441 0.794837
12.433 -53.4832 484.365 0.517654 -0.451741 0.726611
12.2527 -53.5497 484.461 0.567543 -0.407545 0.715403
12.0805 -53.6286 484.557 0.546416 -0.423812 0.722366
11.904 -53.693 484.657 0.569373 -0.457428 0.683062
11.7268 -53.7627 484.755 0.596147 -0.430474 0.677718
11.5753 -53.8544 484.859 0.562787 -0.443512 0.697545
11.386 -53.9133 484.954 0.444744 -0.494603 0.746706
11.145 -53.9274 485.034 0.370554 -0.484199 0.792616
10.9326 -53.9634 485.124 0.325716 -0.496363 0.804694
10.6997 -53.9878 485.204 0.312408 -0.518203 0.796157
10.4698 -54.012 485.288 0.363567 -0.53917 0.75968
10.2628 -54.0561 485.378 0.400327 -0.548424 0.734145
10.0364 -54.0791 485.465 0.412547 -0.516115 0.75062
9.82484 -54.1256 485.55 0.455839 -0.489259 0.74353
9.62996 -54.1787 485.644 0.391468 -0.438331 0.809085
9.38652 -54.1917 485.724 0.288716 -0.406035 0.867052
9.12489 -54.1892 485.8 0.291503 -0.436322 0.851263
8.87654 -54.1982 485.879 0.279344 -0.464775 0.840209
8.63296 -54.21 485.96 0.23662 -0.489921 0.83904
8.37366 -54.2115 486.036 0.178653 -0.541098 0.821764
8.08614 -54.1873 486.105 0.149441 -0.5467 0.823885
7.80336 -54.1674 486.175 0.179696 -0.534457 0.825872
7.51378 -54.1419 486.244 0.170873 -0.536677 0.826305
7.21422 -54.108 486.31 0.111504 -0.527981 0.841904
6.90543 -54.0663 486.374 0.101933 -0.512732 0.852476
6.60572 -54.0327 486.44 0.133987 -0.536668 0.833088
6.30692 -54.0001 486.507 0.0781274 -0.527999 0.845643
5.93905 -53.9086 486.555 -0.00774641 -0.514914 0.857207
5.59979 -53.8418 486.612 0.0438795 -0.562285 0.825779
5.29763 -53.807 486.678 0.0176047 -0.553573 0.832615
4.88116 -53.6748 486.715 -0.0588004 -0.539181 0.840135
4.52731 -53.5964 486.768 -0.0793861 -0.567305 0.819672
4.10875 -53.4631 486.804 -0.132948 -0.581668 0.802488
3.6552 -53.3003 486.832 -0.130304 -0.589681 0.797055
3.29936 -53.2213 486.885 -0.137499 -0.591738 0.794318
2.76519 -52.9905 486.892 -0.235553 -0.5804 0.77952
2.19816 -52.7323 486.89 -0.250955 -0.573806 0.779595
17.8739 -43.1659 476.277 0.984756 0.161448 -0.0647284
17.9469 -43.4646 476.451 0.988343 0.151988 -0.00883548
17.9671 -43.7147 476.608 0.99269 0.118552 -0.0226224
18.0004 -43.9765 476.769 0.995736 0.0918507 0.00854196
17.9954 -44.2031 476.918 0.990972 0.130444 0.0309566
18.0603 -44.4934 477.089 0.991789 0.123583 0.0328896
18.0625 -44.7262 477.24 0.994921 0.0847803 0.0542674
18.0797 -44.9725 477.395 0.992037 0.0998376 0.0767813
18.0792 -45.2024 477.546 0.990042 0.0636829 0.125543
18.0709 -45.425 477.693 0.989654 0.0589454 0.130805
18.0702 -45.6544 477.843 0.987443 0.0337485 0.154331
18.0402 -45.857 477.984 0.990731 0.032267 0.131954
18.0521 -46.0975 478.138 0.994882 0.0430534 0.0914117
18.0398 -46.3146 478.285 0.988418 0.00534675 0.151664
18.0016 -46.5104 478.422 0.981827 -0.000333223 0.189776
17.9872 -46.7267 478.567 0.978007 -0.0392941 0.204836
17.9468 -46.9188 478.705 0.973973 -0.0879795 0.208895
17.8808 -47.0881 478.834 0.978935 -0.063327 0.194102
17.8553 -47.2937 478.976 0.974086 -0.0264034 0.22463
17.8142 -47.4851 479.113 0.969335 -0.0253788 0.244427
17.7686 -47.6723 479.249 0.964158 -0.049274 0.260712
17.7233 -47.8597 479.384 0.965087 -0.0579421 0.255439
17.6761 -48.0451 479.519 0.961088 -0.0454711 0.272474
17.6251 -48.2272 479.653 0.945515 -0.0367733 0.323497
17.5703 -48.4057 479.786 0.92814 -0.0771672 0.364144
17.4999 -48.57 479.914 0.891715 -0.161483 0.42281
17.4074 -48.7165 480.033 0.902721 -0.182645 0.389532
17.3344 -48.8737 480.165 0.948329 -0.136624 0.286368
17.2633 -49.0396 480.29 0.960464 -0.0888193 0.263855
17.2303 -49.2372 480.429 0.939354 -0.10168 0.32753
