-7.68481 -22.8452 501.244 -0.844189 -0.354353 0.402217
-7.78815 -22.727 501.086 -0.821261 -0.36263 0.440488
-7.89967 -22.621 500.931 -0.817735 -0.308077 0.486208
-8.02636 -22.5394 500.782 -0.869469 -0.278791 0.407799
-8.14076 -22.4377 500.628 -0.867257 -0.361324 0.342507
-8.25576 -22.3373 500.474 -0.804183 -0.434536 0.405546
-8.39046 -22.2674 500.326 -0.840096 -0.381551 0.38556
-8.4695 -22.1111 500.16 -0.872764 -0.331433 0.358378
-8.59236 -22.0226 500.009 -0.861303 -0.300787 0.409492
-8.71262 -21.9302 499.857 -0.891234 -0.285241 0.352619
-8.79038 -21.7716 499.69 -0.908001 -0.288853 0.303476
-8.91643 -21.688 499.54 -0.895394 -0.318827 0.310835
-8.99694 -21.5334 499.374 -0.930762 -0.283808 0.230512
-9.06935 -21.3662 499.206 -0.941846 -0.276513 0.190962
-9.16299 -21.2321 499.043 -0.904824 -0.350618 0.241578
-9.27246 -21.1221 498.888 -0.894156 -0.391357 0.217544
-9.34994 -20.9624 498.721 -0.916391 -0.344631 0.20361
-9.45036 -20.8384 498.562 -0.923545 -0.320463 0.210636
-9.51246 -20.6544 498.39 -0.943708 -0.265477 0.197324
-9.58421 -20.4853 498.221 -0.963564 -0.198894 0.178848
-9.66598 -20.3316 498.056 -0.96567 -0.214807 0.146082
-9.72215 -20.1379 497.881 -0.954421 -0.242046 0.174629
-9.81085 -19.995 497.716 -0.970397 -0.186739 0.153159
-9.82834 -19.7402 497.528 -0.985608 -0.132971 0.104378
-9.90757 -19.5821 497.361 -0.979388 -0.17359 0.103277
-9.95204 -19.3692 497.182 -0.978415 -0.180155 0.101236
-10.0016 -19.1642 497.007 -0.986702 -0.145677 0.0720964
-10.0306 -18.9265 496.82 -0.984154 -0.16041 0.075563
-10.1136 -18.7737 496.654 -0.986002 -0.140143 0.0903313
-10.1177 -18.4964 496.46 -0.995222 -0.0809113 0.0546532
-10.1718 -18.2976 496.283 -0.998003 -0.062631 -0.00821355
-10.1675 -18.0065 496.086 -0.99713 -0.0658363 -0.037387
-10.1599 -17.71 495.888 -0.996417 -0.0794091 0.0290987
-10.2203 -17.5205 495.714 -0.997605 -0.068601 -0.00881251
-10.204 -17.2095 495.512 -0.993005 -0.0713021 -0.0941125
-10.2247 -16.9569 495.323 -0.995241 -0.0719392 -0.0657307
-10.2146 -16.655 495.123 -0.995495 -0.0308926 -0.0896343
-10.1706 -16.2992 494.911 -0.991522 0.0305636 -0.126294
-10.1212 -15.9344 494.696 -0.993027 0.0506371 -0.106454
-10.092 -15.6013 494.489 -0.978745 0.0467661 -0.199679
-10.0322 -15.2192 494.27 -0.966231 0.0549396 -0.251754
-9.95455 -14.8083 494.045 -0.973055 0.0545705 -0.224021
-9.87956 -14.4012 493.821 -0.960443 0.0569578 -0.27259
-9.76179 -13.9255 493.581 -0.953844 0.101158 -0.282751
1.69881 -22.1042 507.96 -0.0572441 -0.559061 0.827148
1.44717 -22.2068 507.844 -0.131953 -0.55169 0.823545
1.19129 -22.3158 507.73 -0.053066 -0.565505 0.823036
0.906968 -22.4677 507.625 -0.0427562 -0.574096 0.817671
0.659273 -22.565 507.509 -0.153244 -0.556735 0.816433
0.396028 -22.6858 507.398 -0.157481 -0.575163 0.802738
0.143533 -22.7908 507.283 -0.143615 -0.618576 0.772488
-0.0856099 -22.861 507.163 -0.159194 -0.600201 0.783847
-0.334356 -22.9608 507.047 -0.157239 -0.56638 0.809005
-0.564045 -23.0322 506.927 -0.242912 -0.525079 0.81565
-0.798252 -23.1105 506.808 -0.292237 -0.52808 0.797326
-1.02464 -23.1773 506.687 -0.264486 -0.57918 0.771102
-1.24876 -23.2409 506.565 -0.262119 -0.578298 0.772571
-1.4796 -23.3144 506.446 -0.321233 -0.561957 0.762242
-1.66467 -23.3201 506.312 -0.320403 -0.57802 0.75049
-1.88378 -23.3767 506.189 -0.306095 -0.551534 0.775961
-2.10678 -23.4385 506.068 -0.36487 -0.525155 0.768819
-2.30861 -23.4695 505.94 -0.372938 -0.529364 0.76203
-2.51354 -23.5052 505.813 -0.343788 -0.538072 0.769603
-2.72597 -23.5515 505.689 -0.428331 -0.538413 0.725703
-2.91344 -23.5615 505.557 -0.443557 -0.56109 0.698881
-3.09888 -23.568 505.424 -0.379159 -0.557471 0.738555
-3.31127 -23.6153 505.3 -0.411612 -0.509943 0.755337
-3.50151 -23.6292 505.169 -0.439199 -0.505859 0.742436
-3.69372 -23.6463 505.039 -0.532087 -0.481218 0.696643
-3.86192 -23.627 504.902 -0.54806 -0.489181 0.678478
-4.05227 -23.6413 504.771 -0.514494 -0.555291 0.653412
-4.22987 -23.6365 504.637 -0.49523 -0.570831 0.654904
-4.40388 -23.6262 504.501 -0.573864 -0.482639 0.661619
-4.55255 -23.5774 504.358 -0.627707 -0.444591 0.639001
-4.72282 -23.5616 504.222 -0.569794 -0.518597 0.637489
-4.90489 -23.5638 504.089 -0.503953 -0.59559 0.625543
-5.07646 -23.5501 503.953 -0.559515 -0.542787 0.626359
-5.24035 -23.5247 503.814 -0.620128 -0.490306 0.612406
-5.39153 -23.4799 503.672 -0.591838 -0.488735 0.640988
-5.56639 -23.4714 503.537 -0.614217 -0.45409 0.645399
-5.73699 -23.4565 503.401 -0.660414 -0.456842 0.595943
-5.87665 -23.3943 503.255 -0.681541 -0.453827 0.574059
-6.02441 -23.344 503.112 -0.68271 -0.430423 0.590461
-6.18046 -23.3072 502.971 -0.641468 -0.444379 0.625337
-6.34765 -23.2872 502.834 -0.644378 -0.435186 0.628801
-6.5041 -23.2509 502.694 -0.724771 -0.406288 0.556451
-6.64344 -23.1881 502.548 -0.752695 -0.435421 0.49382
-6.77614 -23.1153 502.4 -0.76143 -0.450661 0.46597
-6.90628 -23.0384 502.251 -0.761552 -0.460845 0.455698
-7.04532 -22.9753 502.105 -0.742668 -0.48522 0.461524
-7.18431 -22.9122 501.959 -0.743469 -0.486567 0.45881
-7.30918 -22.8271 501.809 -0.720481 -0.469574 0.510302
-7.4488 -22.7639 501.662 -0.730731 -0.417645 0.540005
-7.57236 -22.6784 501.512 -0.783628 -0.346689 0.515494
-7.71126 -22.6144 501.366 -0.851634 -0.294459 0.433606
-7.80222 -22.4768 501.204 -0.867081 -0.304636 0.394166
-7.93358 -22.4009 501.055 -0.812523 -0.347646 0.467919
-8.05939 -22.3185 500.906 -0.801782 -0.355018 0.480737
-8.19808 -22.2542 500.759 -0.848597 -0.342202 0.403461
-8.28735 -22.1138 500.597 -0.838392 -0.342874 0.423718
-8.41703 -22.036 500.448 -0.864619 -0.299306 0.403547
-8.51389 -21.9072 500.288 -0.90012 -0.272183 0.340147
-8.60889 -21.7754 500.127 -0.855137 -0.316359 0.410679
-8.72207 -21.6718 499.973 -0.87812 -0.279169 0.388549
-8.83479 -21.5674 499.818 -0.897105 -0.278271 0.343174
-8.91667 -21.415 499.653 -0.894834 -0.284182 0.344255
-9.02991 -21.3113 499.498 -0.927725 -0.259484 0.268318
-9.11352 -21.161 499.334 -0.928205 -0.286026 0.23796
-9.2108 -21.0325 499.173 -0.884667 -0.365908 0.288922
-9.3187 -20.9203 499.016 -0.913884 -0.343312 0.216685
-9.3867 -20.7456 498.846 -0.931624 -0.279503 0.232281
-9.48196 -20.6134 498.685 -0.943533 -0.223562 0.244469
-9.54433 -20.4296 498.513 -0.960921 -0.176802 0.213006
-9.62583 -20.2756 498.347 -0.954785 -0.188344 0.230025
-9.68464 -20.086 498.173 -0.962983 -0.165485 0.212788
-9.75922 -19.9208 498.005 -0.966606 -0.198738 0.161789
-9.80217 -19.706 497.825 -0.975682 -0.192518 0.104789
-9.88068 -19.5467 497.658 -0.978297 -0.17635 0.108793
-9.92517 -19.3339 497.478 -0.978143 -0.176977 0.109159
-9.97742 -19.133 497.302 -0.982471 -0.154459 0.104373
-10.0339 -18.9386 497.127 -0.984747 -0.155981 0.0770858
-10.087 -18.7387 496.951 -0.98603 -0.162531 0.0364543
-10.0917 -18.4625 496.758 -0.991215 -0.120631 0.0542388
-10.1495 -18.2697 496.583 -0.994237 -0.0914785 0.0558944
-10.161 -18.0034 496.391 -0.99772 -0.0669321 0.00867437
-10.1747 -17.7404 496.2 -0.997195 -0.0574572 -0.0479685
-10.1989 -17.4938 496.013 -0.991136 -0.129864 -0.0280019
-10.2281 -17.2548 495.828 -0.993995 -0.109383 -0.00309782
-10.2598 -17.0196 495.643 -0.99264 -0.0652144 -0.102044
-10.2183 -16.6682 495.432 -0.993696 -0.0639835 -0.0920551
-10.25 -16.4323 495.246 -0.994745 -0.000412735 -0.102378
-10.1891 -16.0495 495.029 -0.983148 0.0184367 -0.18188
-10.1588 -15.7147 494.821 -0.987404 -0.0178031 -0.157216
-10.1599 -15.4294 494.624 -0.976772 0.0279458 -0.212452
-10.0149 -14.9117 494.376 -0.963969 0.0577339 -0.259675
-9.94945 -14.5198 494.155 -0.979011 0.058154 -0.195336
-9.89651 -14.1473 493.938 -0.970703 0.115163 -0.210889
-9.72146 -13.5801 493.678 -0.956186 0.122361 -0.265963
1.66598 -21.8847 508.087 -0.0861244 -0.540033 0.837226
1.39741 -22.0126 507.977 -0.117853 -0.537816 0.834784
1.12785 -22.1421 507.867 -0.0314842 -0.58036 0.813751
0.839276 -22.3005 507.762 -0.0506058 -0.603582 0.795693
0.597676 -22.3887 507.645 -0.11617 -0.582886 0.804207
0.334474 -22.5096 507.533 -0.119987 -0.562455 0.818076
0.0892048 -22.6038 507.417 -0.190718 -0.580688 0.791472
-0.135651 -22.6675 507.295 -0.213585 -0.574351 0.790254
-0.368487 -22.7435 507.175 -0.213558 -0.553978 0.804675
-0.602458 -22.8213 507.056 -0.230728 -0.53844 0.810461
-0.842535 -22.9085 506.938 -0.230278 -0.540996 0.808885
-1.07827 -22.9894 506.82 -0.277784 -0.557516 0.782312
-1.28162 -23.0217 506.692 -0.288529 -0.562328 0.774944
-1.50211 -23.0792 506.569 -0.323696 -0.523298 0.788276
-1.73226 -23.153 506.449 -0.381416 -0.515451 0.767354
-1.92137 -23.1642 506.317 -0.322898 -0.569621 0.755823
-2.13808 -23.2169 506.194 -0.348289 -0.548521 0.760144
-2.33283 -23.2374 506.064 -0.367356 -0.525434 0.767443
-2.56084 -23.3077 505.944 -0.339275 -0.530388 0.776905
-2.76481 -23.3413 505.817 -0.414761 -0.507898 0.754992
-2.95939 -23.3624 505.687 -0.463616 -0.539425 0.702909
-3.14349 -23.3664 505.554 -0.413758 -0.593017 0.69075
-3.33196 -23.378 505.422 -0.399807 -0.538567 0.741687
-3.53943 -23.4176 505.297 -0.454378 -0.492541 0.742256
-3.72115 -23.4187 505.163 -0.521018 -0.4775 0.707485
-3.90347 -23.4207 505.03 -0.486912 -0.484127 0.727006
-4.11111 -23.4614 504.905 -0.522006 -0.497939 0.692508
-4.25368 -23.4032 504.76 -0.604181 -0.478411 0.637251
-4.41932 -23.3801 504.621 -0.598473 -0.484592 0.637966
-4.59378 -23.3705 504.486 -0.554514 -0.489363 0.673081
-4.79547 -23.4026 504.359 -0.498481 -0.529009 0.68678
-4.96804 -23.3903 504.223 -0.568835 -0.544923 0.616025
-5.11238 -23.335 504.079 -0.613439 -0.494935 0.615412
-5.28106 -23.3169 503.942 -0.637005 -0.460911 0.617888
-5.4341 -23.2749 503.8 -0.621305 -0.491303 0.610411
-5.59795 -23.2495 503.662 -0.588848 -0.483588 0.647612
-5.75805 -23.2184 503.522 -0.659267 -0.442186 0.608143
-5.90964 -23.1743 503.38 -0.699748 -0.473606 0.534836
-6.05403 -23.1192 503.236 -0.66466 -0.508575 0.547338
-6.21077 -23.0831 503.095 -0.638859 -0.490877 0.592367
-6.35952 -23.0348 502.952 -0.637793 -0.46412 0.614665
-6.5218 -23.0076 502.814 -0.681149 -0.426902 0.594803
-6.67011 -22.9581 502.67 -0.738447 -0.413211 0.532873
-6.80926 -22.8953 502.525 -0.754969 -0.436169 0.489672
-6.94837 -22.8321 502.378 -0.752153 -0.440476 0.490149
-7.08323 -22.7624 502.231 -0.751606 -0.432794 0.497772
-7.21529 -22.6879 502.082 -0.780468 -0.415492 0.467158
-7.33956 -22.6028 501.932 -0.772393 -0.417808 0.478377
-7.47883 -22.5395 501.786 -0.773568 -0.415164 0.478782
-7.60351 -22.4537 501.635 -0.789036 -0.405896 0.461162
-7.72924 -22.3706 501.485 -0.833215 -0.346143 0.431205
-7.84771 -22.2751 501.332 -0.860646 -0.334212 0.384176
-7.95064 -22.1559 501.175 -0.805668 -0.404658 0.432609
-8.08741 -22.0891 501.028 -0.78185 -0.409727 0.46993
-8.20586 -21.9938 500.875 -0.851484 -0.362983 0.378441
-8.31143 -21.8785 500.718 -0.857256 -0.348103 0.37939
-8.43337 -21.7886 500.566 -0.862099 -0.336646 0.378755
-8.52657 -21.6539 500.405 -0.892229 -0.330618 0.307603
-8.64332 -21.5558 500.251 -0.863836 -0.384976 0.324932
-8.75171 -21.4447 500.095 -0.86477 -0.349692 0.360399
-8.85484 -21.3252 499.937 -0.894391 -0.290136 0.34042
-8.95927 -21.2077 499.779 -0.886931 -0.337164 0.315711
-9.06891 -21.0983 499.623 -0.908981 -0.321387 0.265451
-9.13925 -20.9275 499.454 -0.909659 -0.289429 0.297912
-9.26762 -20.8471 499.304 -0.883715 -0.308081 0.352326
-9.35095 -20.6964 499.139 -0.943705 -0.224101 0.243311
-9.41136 -20.5097 498.966 -0.952554 -0.213086 0.217337
-9.48759 -20.3476 498.799 -0.953894 -0.210671 0.213787
-9.55057 -20.1646 498.627 -0.959821 -0.177538 0.217311
-9.62444 -19.9984 498.458 -0.959254 -0.181218 0.216773
-9.69291 -19.8237 498.288 -0.945682 -0.253182 0.203922
-9.80517 -19.7175 498.132 -0.959305 -0.241062 0.147047
-9.85391 -19.5116 497.954 -0.979401 -0.174167 0.102174
-9.89817 -19.2984 497.777 -0.978528 -0.170382 0.115991
-9.95089 -19.0983 497.6 -0.982024 -0.155019 0.107694
-10.0069 -18.9032 497.425 -0.98025 -0.153172 0.125096
-10.0565 -18.6977 497.247 -0.981437 -0.142972 0.127827
-10.1063 -18.4927 497.072 -0.993987 -0.0895117 0.0630742
-10.1293 -18.2447 496.882 -0.994332 -0.097254 0.0429604
-10.168 -18.0216 496.701 -0.991199 -0.132379 -0.00077303
-10.185 -17.7638 496.511 -0.991761 -0.121396 -0.0409048
-10.2337 -17.556 496.333 -0.988 -0.133888 -0.077004
-10.2258 -17.2584 496.134 -0.991944 -0.115972 -0.0509578
-10.2599 -17.027 495.95 -0.994586 -0.102906 0.0144552
-10.2756 -16.7662 495.76 -0.996521 -0.040215 -0.0729931
-10.2588 -16.4536 495.558 -0.995695 -0.0139123 -0.0916351
-10.2286 -16.1194 495.351 -0.995806 -0.00837492 -0.0911066
-10.2245 -15.8263 495.152 -0.989444 0.0265177 -0.142471
-10.1609 -15.4384 494.933 -0.995562 0.0420946 -0.084169
-10.1262 -15.0959 494.724 -0.988465 0.0837234 -0.126199
-10.0634 -14.7084 494.504 -0.960573 0.0689987 -0.269329
-9.95005 -14.24 494.267 -0.964232 0.0576932 -0.258706
-9.83455 -13.7677 494.028 -0.971784 0.10743 -0.209988
1.63754 -21.6585 508.214 -0.0981471 -0.529979 0.842312
1.35129 -21.8128 508.109 -0.0656311 -0.535572 0.841936
1.07669 -21.95 508 -0.0214433 -0.567969 0.822771
0.791328 -22.1036 507.894 -0.102852 -0.574862 0.811761
0.573019 -22.157 507.77 -0.151713 -0.563792 0.811863
0.300079 -22.2922 507.661 -0.12413 -0.537197 0.834273
0.0449904 -22.4014 507.547 -0.250389 -0.493858 0.832712
-0.174924 -22.4578 507.424 -0.270742 -0.514438 0.813666
-0.414531 -22.5439 507.306 -0.227838 -0.559529 0.79688
-0.63894 -22.6074 507.184 -0.208319 -0.570823 0.794207
-0.881001 -22.6976 507.067 -0.190065 -0.577372 0.79405
-1.1147 -22.7751 506.948 -0.274678 -0.55331 0.786384
-1.33607 -22.8346 506.825 -0.339433 -0.547351 0.764978
-1.53644 -22.8626 506.696 -0.306338 -0.564139 0.766749
-1.74904 -22.9094 506.571 -0.320515 -0.526994 0.787113
-1.98421 -22.9901 506.453 -0.371707 -0.515712 0.77193
-2.17422 -23.0027 506.321 -0.366776 -0.561308 0.741895
-2.39047 -23.0554 506.197 -0.337514 -0.578681 0.742437
-2.58386 -23.0733 506.067 -0.343355 -0.557989 0.755484
-2.79422 -23.1173 505.942 -0.369781 -0.51714 0.771899
-3.01527 -23.178 505.82 -0.436161 -0.479783 0.761296
-3.20602 -23.1917 505.689 -0.501017 -0.534818 0.680405
-3.36794 -23.1631 505.549 -0.430547 -0.57094 0.69904
-3.57561 -23.2027 505.424 -0.44774 -0.519686 0.727637
-3.74758 -23.1893 505.287 -0.49731 -0.543289 0.676403
-3.93648 -23.2014 505.156 -0.43213 -0.565071 0.702821
-4.1231 -23.21 505.024 -0.523201 -0.496124 0.692908
-4.30414 -23.2103 504.89 -0.593678 -0.498387 0.631788
-4.47861 -23.2007 504.755 -0.578499 -0.567064 0.586326
-4.62227 -23.1441 504.61 -0.487155 -0.586766 0.646827
-4.82098 -23.1716 504.482 -0.463105 -0.537059 0.705054
-4.99837 -23.1666 504.348 -0.635249 -0.452129 0.626129
-5.14424 -23.1135 504.204 -0.648229 -0.467962 0.600675
-5.31214 -23.0942 504.066 -0.602932 -0.490032 0.629557
-5.48018 -23.0751 503.929 -0.639789 -0.485277 0.595967
-5.62517 -23.0208 503.785 -0.606109 -0.501056 0.617718
-5.80881 -23.0257 503.653 -0.606094 -0.468892 0.642488
-5.97273 -23.0005 503.514 -0.68487 -0.444136 0.577665
-6.1137 -22.9401 503.369 -0.700843 -0.462878 0.542736
-6.25599 -22.8817 503.224 -0.669559 -0.476761 0.569552
-6.41574 -22.8502 503.084 -0.657783 -0.478809 0.581433
-6.56122 -22.7968 502.94 -0.665024 -0.46166 0.587038
-6.71891 -22.7625 502.8 -0.709008 -0.417278 0.568495
-6.85839 -22.6996 502.654 -0.759444 -0.386652 0.523207
-6.98445 -22.6163 502.504 -0.76688 -0.387825 0.511359
-7.12124 -22.5495 502.357 -0.75884 -0.401704 0.512636
-7.2606 -22.4862 502.211 -0.783803 -0.403036 0.472457
-7.38348 -22.3989 502.06 -0.778335 -0.386245 0.494985
-7.52282 -22.3356 501.914 -0.78097 -0.35727 0.512292
-7.64688 -22.2483 501.762 -0.822024 -0.356876 0.443752
-7.75713 -22.1421 501.608 -0.823231 -0.393775 0.408941
-7.88217 -22.0562 501.457 -0.83226 -0.375735 0.407634
-8.00868 -21.9734 501.307 -0.814823 -0.383516 0.434718
-8.13286 -21.887 501.156 -0.784624 -0.411879 0.46338
-8.27075 -21.8218 501.009 -0.858815 -0.365916 0.358527
-8.35144 -21.6678 500.844 -0.862056 -0.357238 0.3595
-8.48293 -21.5926 500.695 -0.846807 -0.34901 0.401384
-8.59532 -21.4877 500.54 -0.869573 -0.36546 0.332086
-8.70199 -21.3738 500.384 -0.888292 -0.363406 0.280846
-8.77276 -21.204 500.215 -0.888822 -0.340413 0.306781
-8.8964 -21.1163 500.063 -0.862458 -0.360396 0.35536
-9.00453 -21.0045 499.907 -0.882574 -0.34282 0.321773
-9.09717 -20.8684 499.745 -0.929398 -0.253091 0.268633
-9.17185 -20.7043 499.578 -0.91305 -0.256889 0.316776
-9.27363 -20.5823 499.419 -0.899511 -0.241845 0.363857
-9.3551 -20.4284 499.253 -0.939724 -0.163283 0.300428
-9.45058 -20.2964 499.092 -0.952737 -0.206468 0.222852
-9.51796 -20.1203 498.921 -0.962994 -0.216365 0.160711
-9.58276 -19.9399 498.75 -0.958635 -0.223424 0.176352
-9.66492 -19.7867 498.584 -0.931598 -0.301744 0.202672
-9.77794 -19.6816 498.43 -0.937264 -0.295754 0.184568
-9.80967 -19.449 498.247 -0.971027 -0.187588 0.148043
-9.86536 -19.2538 498.071 -0.981867 -0.138095 0.129872
-9.92343 -19.0621 497.896 -0.980827 -0.149732 0.124731
-9.97995 -18.8677 497.72 -0.983865 -0.135491 0.116844
-10.0123 -18.6352 497.538 -0.982284 -0.140509 0.124001
-10.0797 -18.4576 497.367 -0.985269 -0.138847 0.0998298
-10.1028 -18.2101 497.18 -0.992032 -0.11102 0.0595541
-10.1523 -18.0042 497.004 -0.988331 -0.13544 0.0697005
-10.2115 -17.8129 496.827 -0.991017 -0.133265 0.0112017
-10.2299 -17.5571 496.638 -0.991261 -0.131177 -0.0138989
-10.2619 -17.3227 496.454 -0.997093 -0.0710304 -0.0275635
-10.2427 -17.0073 496.254 -0.997314 -0.0642251 -0.0352103
-10.2771 -16.7759 496.068 -0.993875 -0.10849 -0.0210279
-10.2855 -16.5032 495.875 -0.997537 -0.0208644 -0.0669683
-10.2499 -16.1605 495.666 -0.995649 -0.00975425 -0.0926762
-10.2696 -15.9052 495.476 -0.994062 -0.00929042 -0.108416
-10.2073 -15.5195 495.258 -0.991267 0.0766021 -0.107339
-10.1301 -15.1095 495.034 -0.993125 0.0521754 -0.104785
-10.1424 -14.8415 494.841 -0.987435 0.00334184 -0.157989
-10.0889 -14.4685 494.625 -0.955478 0.053268 -0.290215
-9.94036 -13.9437 494.375 -0.947533 0.0691931 -0.312079
-9.86836 -13.5402 494.151 -0.953458 0.0402194 -0.298831
1.59974 -21.4461 508.344 -0.0484845 -0.585607 0.809144
1.30408 -21.6146 508.241 -0.0124067 -0.555364 0.831515
1.02157 -21.7637 508.134 -0.0700761 -0.508359 0.858289
0.750033 -21.8966 508.024 -0.177912 -0.485401 0.855998
0.505722 -21.9881 507.907 -0.194644 -0.539566 0.819135
0.269114 -22.0701 507.788 -0.165075 -0.549628 0.818938
0.0423558 -22.1367 507.666 -0.220939 -0.505241 0.834217
-0.22155 -22.259 507.555 -0.224105 -0.511985 0.829246
-0.456918 -22.3387 507.436 -0.236999 -0.522111 0.819287
-0.699301 -22.4293 507.319 -0.212643 -0.550627 0.807213
-0.937846 -22.5143 507.201 -0.229226 -0.56002 0.796137
-1.152 -22.5627 507.076 -0.285175 -0.542001 0.790513
-1.37361 -22.6228 506.953 -0.324396 -0.542896 0.774617
-1.58915 -22.6733 506.829 -0.345762 -0.569096 0.746041
-1.79254 -22.7061 506.701 -0.298872 -0.584339 0.754469
-2.00191 -22.7479 506.575 -0.301666 -0.556298 0.774294
-2.23707 -22.8287 506.456 -0.340543 -0.577746 0.741782
-2.42673 -22.8414 506.325 -0.348925 -0.601601 0.71856
-2.64306 -22.8933 506.201 -0.38247 -0.570248 0.727004
-2.8254 -22.8952 506.067 -0.394937 -0.537066 0.745376
-3.01573 -22.9088 505.936 -0.357218 -0.502453 0.78736
-3.25877 -23.0021 505.821 -0.498276 -0.463298 0.732855
-3.40974 -22.9567 505.678 -0.509138 -0.511849 0.691946
-3.61462 -22.9925 505.551 -0.394799 -0.562828 0.726195
-3.82425 -23.0362 505.426 -0.479615 -0.552338 0.68183
-3.98912 -23.0117 505.288 -0.49705 -0.55811 0.664421
-4.16961 -23.0111 505.154 -0.484974 -0.54649 0.682751
-4.35421 -23.0167 505.021 -0.529382 -0.488136 0.693886
-4.52923 -23.0079 504.886 -0.611022 -0.452563 0.649492
-4.69593 -22.9864 504.748 -0.561872 -0.544192 0.623021
-4.86338 -22.9662 504.61 -0.510395 -0.551672 0.659662
-5.03184 -22.9475 504.473 -0.615479 -0.449478 0.647422
-5.19661 -22.9233 504.335 -0.645697 -0.439969 0.624101
-5.35211 -22.8849 504.194 -0.592013 -0.506616 0.626786
-5.52316 -22.8704 504.057 -0.622453 -0.525162 0.580307
-5.67398 -22.8249 503.915 -0.627029 -0.543221 0.558341
-5.82148 -22.7744 503.771 -0.588644 -0.528917 0.611347
-5.98588 -22.7499 503.633 -0.66164 -0.437997 0.608597
-6.13751 -22.706 503.491 -0.707419 -0.415399 0.571841
-6.2892 -22.6615 503.349 -0.673154 -0.469377 0.571445
-6.44174 -22.6191 503.207 -0.674816 -0.46875 0.569997
-6.58861 -22.5678 503.063 -0.696074 -0.447506 0.561444
-6.72944 -22.5071 502.917 -0.716298 -0.425141 0.553329
-6.86885 -22.4443 502.771 -0.755243 -0.385982 0.529741
-7.0118 -22.387 502.627 -0.75615 -0.401639 0.516646
-7.15122 -22.3241 502.481 -0.742928 -0.4232 0.518614
-7.28991 -22.2609 502.335 -0.801689 -0.39147 0.451715
-7.39163 -22.1391 502.176 -0.801718 -0.389489 0.453372
-7.53121 -22.0758 502.03 -0.755011 -0.407144 0.513996
-7.67425 -22.0198 501.886 -0.787645 -0.386947 0.479465
-7.81358 -21.9563 501.739 -0.836184 -0.36023 0.413559
-7.90881 -21.8245 501.579 -0.8362 -0.360263 0.413497
-8.03199 -21.7374 501.428 -0.804608 -0.394178 0.444105
-8.15777 -21.6529 501.277 -0.783523 -0.409949 0.46694
-8.28895 -21.5772 501.128 -0.866836 -0.314147 0.387177
-8.37674 -21.4335 500.965 -0.877335 -0.330906 0.347542
-8.49937 -21.3455 500.814 -0.818543 -0.365235 0.443386
-8.62149 -21.255 500.662 -0.863029 -0.282983 0.418451
-8.72335 -21.1336 500.504 -0.908589 -0.253734 0.331791
-8.82558 -21.0126 500.345 -0.891604 -0.324557 0.315761
-8.93287 -20.8994 500.188 -0.860915 -0.3797 0.338605
-9.03243 -20.7741 500.029 -0.913546 -0.251801 0.319421
-9.10632 -20.6086 499.861 -0.936106 -0.223993 0.271169
-9.19976 -20.4735 499.699 -0.928095 -0.257401 0.269045
-9.27969 -20.3172 499.533 -0.924574 -0.255511 0.282624
-9.37286 -20.1815 499.372 -0.909511 -0.288258 0.299494
-9.48317 -20.0726 499.215 -0.939796 -0.242407 0.24088
-9.53796 -19.8766 499.041 -0.963644 -0.203217 0.173471
-9.62196 -19.7261 498.876 -0.937277 -0.295053 0.185621
-9.71685 -19.5927 498.714 -0.930492 -0.304253 0.203998
-9.76633 -19.3879 498.537 -0.965502 -0.184923 0.18333
-9.83827 -19.2181 498.368 -0.979418 -0.156312 0.127697
-9.89636 -19.0265 498.194 -0.97892 -0.171129 0.111493
-9.94245 -18.8158 498.016 -0.98152 -0.170957 0.0859775
-9.98532 -18.5997 497.835 -0.982268 -0.169809 0.0794637
-10.0528 -18.4223 497.663 -0.979854 -0.17221 0.101143
-10.0987 -18.2107 497.485 -0.986102 -0.145213 0.0807219
-10.1457 -18.0005 497.305 -0.989485 -0.131346 0.0605623
-10.1874 -17.782 497.126 -0.982768 -0.17551 0.0580026
-10.2285 -17.562 496.945 -0.990835 -0.132484 0.0263492
-10.2518 -17.3141 496.759 -0.996289 -0.0837968 -0.0196729
-10.2493 -17.0248 496.56 -0.993535 -0.0939102 -0.0637962
-10.2897 -16.803 496.38 -0.993301 -0.106098 -0.0457969
-10.3083 -16.5466 496.19 -0.996865 -0.0636654 -0.0469806
-10.2801 -16.2157 495.984 -0.994088 -0.0432425 -0.0995943
-10.3077 -15.9731 495.798 -0.990986 -0.0388042 -0.128223
-10.2402 -15.5791 495.578 -0.985745 0.027088 -0.166052
-10.1676 -15.1767 495.356 -0.984088 0.0156162 -0.176992
-10.2045 -14.9476 495.172 -0.987499 -0.0376538 -0.15306
-10.1547 -14.5806 494.957 -0.98784 -0.00786956 -0.155274
-10.1256 -14.2461 494.749 -0.967781 0.0867715 -0.236368
-9.97252 -13.7137 494.498 -0.96353 0.0933013 -0.250808
-9.92453 -13.3481 494.283 -0.959383 0.0669437 -0.274051
1.27174 -21.3939 508.368 -0.0330191 -0.603248 0.79687
1.02603 -21.4879 508.251 -0.0611945 -0.55896 0.826933
0.740274 -21.6422 508.146 -0.0833563 -0.543875 0.835016
0.468142 -21.7764 508.036 -0.177413 -0.54756 0.817742
0.238471 -21.8479 507.915 -0.216052 -0.549934 0.80678
-0.0159456 -21.955 507.801 -0.161349 -0.588368 0.792332
-0.243707 -22.0232 507.679 -0.152548 -0.606936 0.779973
-0.485481 -22.1126 507.562 -0.15594 -0.600413 0.784338
-0.734785 -22.2136 507.447 -0.180111 -0.58657 0.789617
-0.960363 -22.279 507.325 -0.262674 -0.536277 0.802128
-1.19469 -22.3571 507.206 -0.300996 -0.507629 0.807288
-1.41764 -22.4192 507.083 -0.304142 -0.525439 0.794614
-1.63971 -22.4804 506.961 -0.337392 -0.555318 0.760124
-1.84237 -22.512 506.832 -0.335336 -0.57592 0.745564
-2.06389 -22.5715 506.71 -0.24764 -0.606727 0.755352
-2.28701 -22.6348 506.588 -0.311233 -0.582664 0.750757
-2.49017 -22.6671 506.46 -0.395809 -0.5745 0.716439
-2.67282 -22.6685 506.327 -0.406349 -0.597053 0.691671
-2.86722 -22.6891 506.196 -0.427853 -0.561832 0.708016
-3.07162 -22.7241 506.069 -0.34609 -0.573196 0.742744
-3.26137 -22.7369 505.938 -0.412031 -0.54215 0.732328
-3.46685 -22.7738 505.811 -0.463171 -0.529161 0.710958
-3.66051 -22.7928 505.681 -0.406267 -0.539579 0.737429
-3.84599 -22.7995 505.549 -0.496102 -0.483977 0.720867
-4.02837 -22.8016 505.415 -0.532925 -0.499439 0.683046
-4.21087 -22.8039 505.282 -0.556708 -0.500099 0.663307
-4.35526 -22.7483 505.137 -0.557567 -0.451964 0.696311
-4.55333 -22.7745 505.009 -0.532322 -0.442303 0.721804
-4.73727 -22.7793 504.876 -0.592177 -0.45317 0.666305
-4.89368 -22.7421 504.735 -0.61931 -0.473209 0.626521
-5.05053 -22.7057 504.594 -0.602008 -0.502235 0.620762
-5.21674 -22.6836 504.456 -0.575566 -0.504425 0.643645
-5.40598 -22.6968 504.326 -0.572663 -0.477556 0.666331
-5.57402 -22.6776 504.188 -0.622497 -0.452005 0.638897
-5.73439 -22.6468 504.049 -0.678403 -0.438271 0.589651
-5.88333 -22.5984 503.905 -0.681426 -0.445569 0.580626
-6.02637 -22.541 503.76 -0.664722 -0.452701 0.594311
-6.18324 -22.5053 503.62 -0.651976 -0.486025 0.581986
-6.34353 -22.4737 503.48 -0.660737 -0.518383 0.542869
-6.48558 -22.4152 503.335 -0.680111 -0.502059 0.534215
-6.63785 -22.3721 503.193 -0.706125 -0.466503 0.532694
-6.77735 -22.3094 503.047 -0.735867 -0.434013 0.519743
-6.91684 -22.2466 502.901 -0.735159 -0.423626 0.529228
-7.05626 -22.1837 502.755 -0.735283 -0.443976 0.512098
-7.19262 -22.1161 502.608 -0.73736 -0.463673 0.491231
-7.33075 -22.0512 502.461 -0.797826 -0.429956 0.422623
-7.45361 -21.9626 502.31 -0.796496 -0.454699 0.39855
-7.58805 -21.8922 502.162 -0.744727 -0.48231 0.461258
-7.71339 -21.8074 502.012 -0.782343 -0.415323 0.464163
-7.82459 -21.7008 501.856 -0.836801 -0.352063 0.419305
-7.94921 -21.6149 501.706 -0.82248 -0.386784 0.417042
-8.08838 -21.5508 501.559 -0.798215 -0.417174 0.434532
-8.2029 -21.451 501.406 -0.823773 -0.377159 0.42326
-8.31338 -21.3418 501.249 -0.845973 -0.349808 0.402446
-8.44452 -21.2663 501.101 -0.882894 -0.312995 0.350046
-8.51955 -21.1029 500.934 -0.862504 -0.32476 0.388094
-8.64209 -21.0136 500.782 -0.855892 -0.336901 0.392361
-8.74571 -20.8942 500.624 -0.868047 -0.355301 0.346778
-8.87067 -20.8095 500.473 -0.86941 -0.360959 0.337395
-8.96643 -20.6777 500.312 -0.919847 -0.265958 0.288355
-9.02786 -20.4928 500.14 -0.915477 -0.232527 0.328379
-9.16346 -20.4235 499.993 -0.923218 -0.256668 0.28599
-9.21909 -20.2292 499.819 -0.931219 -0.251326 0.263943
-9.33442 -20.1281 499.664 -0.913981 -0.291788 0.281955
-9.41883 -19.9786 499.499 -0.91481 -0.313363 0.254808
-9.49979 -19.8235 499.333 -0.942049 -0.23257 0.241777
-9.57736 -19.663 499.166 -0.940232 -0.237583 0.243962
-9.68843 -19.5549 499.01 -0.939648 -0.270881 0.209008
-9.72426 -19.3287 498.829 -0.964156 -0.221493 0.146092
-9.81096 -19.1821 498.664 -0.965913 -0.199612 0.164824
-9.86752 -18.9881 498.49 -0.975033 -0.173857 0.138143
-9.9156 -18.7805 498.312 -0.976479 -0.181945 0.115689
-9.99047 -18.6149 498.145 -0.980375 -0.182132 0.0754502
-10.0318 -18.3963 497.963 -0.982473 -0.176253 0.060672
-10.0733 -18.1777 497.783 -0.98229 -0.167084 0.0847893
-10.1191 -17.9657 497.604 -0.985678 -0.157114 0.0612656
-10.1609 -17.7472 497.424 -0.981846 -0.179434 0.0614925
-10.2264 -17.5659 497.251 -0.987988 -0.139279 0.066938
-10.2495 -17.3173 497.063 -0.994519 -0.0981536 0.036018
-10.2825 -17.0846 496.881 -0.995022 -0.099653 0.000565663
-10.3275 -16.8699 496.7 -0.993875 -0.0929143 -0.0598227
-10.2976 -16.537 496.494 -0.995407 -0.0763529 -0.0577449
-10.3072 -16.266 496.302 -0.998736 -0.0473809 -0.0167733
-10.3457 -16.0406 496.119 -0.994608 -0.0468753 -0.0925071
-10.2896 -15.6648 495.903 -0.987359 -0.0188158 -0.157378
-10.2796 -15.3619 495.703 -0.982062 0.00119648 -0.188554
-10.266 -15.0528 495.502 -0.967029 -0.0577551 -0.248031
-10.1827 -14.6327 495.276 -0.982924 -0.0338571 -0.180871
-10.1725 -14.3283 495.075 -0.980572 0.01403 -0.195656
-10.0698 -13.8763 494.842 -0.959674 0.0661354 -0.273226
-9.96935 -13.4272 494.608 -0.9665 0.074905 -0.245494
-9.90167 -13.0299 494.387 -0.948913 0.0744873 -0.306619
1.20373 -21.2266 508.506 -0.0784681 -0.613324 0.785924
0.937249 -21.3518 508.395 -0.0276994 -0.627416 0.778191
0.667423 -21.4823 508.285 -0.0284111 -0.621187 0.783147
0.424464 -21.5727 508.167 -0.142001 -0.599383 0.787766
0.185272 -21.6577 508.048 -0.153077 -0.578645 0.801085
-0.0774529 -21.7782 507.937 -0.139254 -0.590466 0.794958
-0.323066 -21.8733 507.82 -0.162116 -0.60397 0.780345
-0.570591 -21.9715 507.704 -0.169724 -0.60626 0.776945
-0.786695 -22.0225 507.579 -0.221517 -0.615773 0.756144
-1.00404 -22.0756 507.455 -0.257807 -0.59976 0.757511
-1.21444 -22.1183 507.329 -0.254961 -0.555026 0.791796
-1.45634 -22.2093 507.212 -0.256663 -0.549732 0.794933
-1.67914 -22.2711 507.089 -0.324806 -0.535823 0.779355
-1.89291 -22.3188 506.964 -0.318084 -0.543689 0.776675
-2.11812 -22.3846 506.843 -0.307036 -0.550099 0.776608
-2.31673 -22.4103 506.714 -0.338191 -0.539575 0.771029
-2.53979 -22.4732 506.592 -0.387511 -0.537766 0.748761
-2.74165 -22.5041 506.464 -0.469332 -0.538166 0.700076
-2.91175 -22.4869 506.326 -0.419353 -0.567618 0.708487
-3.11885 -22.5259 506.2 -0.379285 -0.565764 0.732157
-3.32345 -22.5613 506.073 -0.410364 -0.562582 0.717707
-3.50743 -22.5656 505.94 -0.451352 -0.548178 0.704119
-3.68233 -22.5574 505.803 -0.46719 -0.509033 0.722924
-3.88602 -22.5904 505.677 -0.471261 -0.485212 0.736535
-4.07577 -22.6037 505.545 -0.534072 -0.476725 0.698212
-4.23623 -22.5724 505.405 -0.618006 -0.46491 0.633977
-4.40147 -22.5485 505.267 -0.552863 -0.52296 0.648734
-4.58303 -22.5495 505.133 -0.463584 -0.557088 0.689015
-4.76452 -22.5505 505 -0.542165 -0.521746 0.658664
-4.93983 -22.5422 504.865 -0.574641 -0.537829 0.616868
-5.12005 -22.5414 504.731 -0.590124 -0.554597 0.586665
-5.26964 -22.4939 504.588 -0.588616 -0.555485 0.58734
-5.41827 -22.4448 504.444 -0.578538 -0.50293 0.642148
-5.58624 -22.4255 504.307 -0.62549 -0.419464 0.657884
-5.74374 -22.3902 504.166 -0.675213 -0.410807 0.612637
-5.89156 -22.34 504.023 -0.682298 -0.434438 0.587991
-6.05688 -22.3167 503.885 -0.628319 -0.482056 0.610604
-6.23119 -22.3073 503.749 -0.613721 -0.495048 0.61504
-6.38817 -22.2714 503.609 -0.690281 -0.430724 0.581368
-6.52796 -22.209 503.463 -0.722688 -0.41342 0.553901
-6.66741 -22.1462 503.317 -0.732622 -0.425541 0.531207
-6.79969 -22.072 503.168 -0.747998 -0.419497 0.514317
-6.93912 -22.0091 503.022 -0.716625 -0.42006 0.556775
-7.0988 -21.9775 502.882 -0.723693 -0.39696 0.564527
-7.23834 -21.9146 502.736 -0.752692 -0.380565 0.537238
-7.37538 -21.848 502.589 -0.785185 -0.369802 0.49672
-7.49909 -21.7608 502.438 -0.808448 -0.37765 0.451433
-7.61585 -21.6627 502.285 -0.80208 -0.3843 0.457145
-7.74304 -21.5805 502.135 -0.815215 -0.353393 0.458845
-7.87237 -21.5024 501.986 -0.815512 -0.365246 0.448928
-7.99899 -21.4193 501.835 -0.808021 -0.404204 0.428627
-8.10431 -21.3033 501.678 -0.822273 -0.385066 0.419036
-8.22761 -21.2152 501.527 -0.836017 -0.350553 0.422124
-8.35038 -21.1262 501.375 -0.850754 -0.36892 0.374321
-8.43887 -20.9839 501.212 -0.885919 -0.305825 0.348739
-8.55745 -20.8883 501.059 -0.857847 -0.309306 0.410401
-8.69025 -20.8148 500.911 -0.829267 -0.394073 0.39626
-8.80581 -20.7145 500.757 -0.857195 -0.402974 0.32067
-8.90056 -20.5816 500.596 -0.901884 -0.340997 0.265189
-8.97064 -20.4101 500.427 -0.939436 -0.24362 0.241059
-9.07161 -20.2867 500.268 -0.895085 -0.305557 0.324743
-9.17467 -20.1665 500.109 -0.920828 -0.274925 0.276574
-9.2428 -19.9911 499.939 -0.919367 -0.263292 0.292304
-9.36885 -19.9076 499.789 -0.899006 -0.314938 0.304305
-9.43774 -19.7331 499.618 -0.942349 -0.262416 0.207642
-9.52426 -19.5866 499.454 -0.939109 -0.273384 0.20817
-9.60574 -19.4321 499.288 -0.919651 -0.309274 0.242056
-9.69667 -19.2923 499.125 -0.946315 -0.235262 0.221675
-9.77329 -19.1299 498.958 -0.972044 -0.179009 0.151941
-9.8194 -18.9194 498.78 -0.968987 -0.189132 0.159037
-9.8856 -18.7403 498.608 -0.97114 -0.176149 0.160808
-9.96363 -18.5796 498.441 -0.972565 -0.190703 0.133228
-10.0048 -18.3609 498.263 -0.981835 -0.155299 0.109003
-10.054 -18.1544 498.084 -0.987618 -0.126481 0.0928112
-10.0994 -17.9418 497.904 -0.982137 -0.165938 0.088725
-10.169 -17.7672 497.734 -0.981779 -0.179153 0.0633521
-10.2087 -17.5452 497.552 -0.983722 -0.179638 0.00458924
-10.2258 -17.2872 497.363 -0.987119 -0.159909 0.00510952
-10.2702 -17.0721 497.182 -0.991723 -0.125908 0.0251658
-10.3058 -16.843 497 -0.992048 -0.125848 -0.00182204
-10.3118 -16.5668 496.807 -0.999206 -0.0393627 -0.00621438
-10.3286 -16.3074 496.617 -0.999881 -0.00456318 -0.0147403
-10.3258 -16.0165 496.42 -0.997676 -0.0680837 0.00259573
-10.3529 -15.7728 496.233 -0.998683 -0.020257 -0.0471478
-10.3299 -15.4493 496.029 -0.988364 -0.0120468 -0.15163
-10.3087 -15.1283 495.825 -0.98704 -0.0418262 -0.154926
-10.2797 -14.7945 495.619 -0.984426 0.0273429 -0.173659
-10.2145 -14.4028 495.399 -0.981929 -0.00973479 -0.189
-10.2252 -14.1313 495.205 -0.97824 0.0177015 -0.206721
-10.1182 -13.6722 494.97 -0.963511 0.0901895 -0.252015
-10.0134 -13.2158 494.736 -0.969067 0.0605174 -0.239262
1.14128 -21.0508 508.643 -0.107176 -0.540182 0.834696
0.898903 -21.1399 508.525 -0.0802633 -0.566916 0.819856
0.615826 -21.2904 508.418 -0.10428 -0.573374 0.812631
0.377505 -21.3739 508.299 -0.176568 -0.583467 0.79271
0.133628 -21.4659 508.181 -0.120855 -0.604803 0.787151
-0.118848 -21.5711 508.067 -0.14153 -0.569636 0.80962
-0.358786 -21.6574 507.948 -0.200352 -0.542088 0.816088
-0.59078 -21.73 507.828 -0.219047 -0.519177 0.82612
-0.854879 -21.8558 507.717 -0.298368 -0.516044 0.802917
-1.04994 -21.8753 507.586 -0.319954 -0.580867 0.748481
-1.27566 -21.9412 507.464 -0.228703 -0.608851 0.759602
-1.50252 -22.009 507.343 -0.243764 -0.595026 0.765848
-1.71026 -22.048 507.216 -0.297753 -0.570858 0.765156
-1.93437 -22.1114 507.094 -0.310647 -0.54538 0.778498
-2.13972 -22.1477 506.966 -0.334026 -0.517288 0.787934
-2.37103 -22.2229 506.847 -0.345183 -0.521785 0.780122
-2.56757 -22.246 506.717 -0.383972 -0.522315 0.761415
-2.76502 -22.2697 506.587 -0.455939 -0.508053 0.730754
-2.96398 -22.2963 506.458 -0.437637 -0.539574 0.719259
-3.15985 -22.3183 506.328 -0.387703 -0.549542 0.740061
-3.35777 -22.3435 506.199 -0.441396 -0.515887 0.734187
-3.54721 -22.356 506.068 -0.51739 -0.48 0.708455
-3.72671 -22.3534 505.933 -0.496305 -0.500613 0.709273
-3.90713 -22.3511 505.8 -0.457413 -0.513035 0.726339
-4.09731 -22.3662 505.668 -0.534351 -0.445178 0.718531
-4.2793 -22.3678 505.534 -0.57606 -0.460385 0.675426
-4.45804 -22.3644 505.4 -0.534979 -0.517193 0.668064
-4.63672 -22.361 505.265 -0.495512 -0.537779 0.682101
-4.82262 -22.3687 505.133 -0.515552 -0.526525 0.676001
-4.99568 -22.3569 504.997 -0.566312 -0.496858 0.657589
-5.15219 -22.3199 504.856 -0.621391 -0.443651 0.645792
-5.31927 -22.299 504.718 -0.675313 -0.440597 0.591462
-5.46434 -22.2445 504.574 -0.652954 -0.505897 0.563666
-5.61864 -22.2041 504.432 -0.597873 -0.498736 0.627543
-5.79896 -22.2039 504.299 -0.629523 -0.495479 0.598499
-5.94982 -22.158 504.156 -0.632329 -0.516439 0.577452
-6.11547 -22.1354 504.018 -0.617955 -0.487213 0.617054
-6.25705 -22.0756 503.872 -0.666242 -0.445553 0.598
-6.40067 -22.0191 503.727 -0.693253 -0.439012 0.571549
-6.55557 -21.9798 503.586 -0.702538 -0.439775 0.559498
-6.70872 -21.9379 503.444 -0.732111 -0.423808 0.533292
-6.84801 -21.8751 503.298 -0.760126 -0.416189 0.498995
-6.97734 -21.7959 503.148 -0.732086 -0.442007 0.518344
-7.11054 -21.7236 503.001 -0.723131 -0.42499 0.544487
-7.25017 -21.6604 502.854 -0.749146 -0.370056 0.549399
-7.38952 -21.5975 502.708 -0.768912 -0.344377 0.538682
-7.52856 -21.5339 502.562 -0.809829 -0.32143 0.490775
-7.64955 -21.4423 502.41 -0.825137 -0.33435 0.455367
-7.76875 -21.3478 502.257 -0.80215 -0.386526 0.455142
-7.89648 -21.2666 502.107 -0.779434 -0.422985 0.462133
-8.03389 -21.2004 501.96 -0.81809 -0.391568 0.421192
-8.15115 -21.1029 501.807 -0.845179 -0.351008 0.40307
-8.26624 -21.0019 501.653 -0.811078 -0.370678 0.452494
-8.40142 -20.9321 501.505 -0.879105 -0.328168 0.345658
-8.47603 -20.7681 501.338 -0.892761 -0.356231 0.275821
-8.59162 -20.6677 501.184 -0.784288 -0.480988 0.391845
-8.73027 -20.6033 501.037 -0.802042 -0.41505 0.42949
-8.84371 -20.4995 500.882 -0.881913 -0.288644 0.372713
-8.93963 -20.3683 500.722 -0.93744 -0.219056 0.270592
-9.01073 -20.1982 500.553 -0.932114 -0.251867 0.260241
-9.11105 -20.0737 500.394 -0.8979 -0.313472 0.309049
-9.20298 -19.9359 500.232 -0.927525 -0.278432 0.249347
-9.28977 -19.7901 500.068 -0.894965 -0.354768 0.270514
-9.40373 -19.6867 499.913 -0.899404 -0.333134 0.283008
-9.48665 -19.5345 499.747 -0.94013 -0.233531 0.248233
-9.57611 -19.3925 499.584 -0.934117 -0.266973 0.23696
-9.65678 -19.2365 499.419 -0.942779 -0.264283 0.203281
-9.72345 -19.0585 499.247 -0.953353 -0.213112 0.213777
-9.78814 -18.8772 499.076 -0.970562 -0.167393 0.173175
-9.8511 -18.693 498.903 -0.972156 -0.172711 0.158375
-9.92128 -18.52 498.733 -0.964393 -0.175803 0.197584
-9.9764 -18.3231 498.558 -0.977401 -0.141365 0.157169
-10.0272 -18.1192 498.381 -0.985095 -0.144651 0.0930818
-10.076 -17.912 498.203 -0.980298 -0.175778 0.0900962
-10.1422 -17.732 498.031 -0.977851 -0.180483 0.10599
-10.1826 -17.5112 497.85 -0.978472 -0.175593 0.108437
-10.2528 -17.3372 497.679 -0.990559 -0.130436 0.0421885
-10.2758 -17.0883 497.492 -0.993426 -0.114175 0.00825838
-10.3074 -16.8529 497.308 -0.990532 -0.132929 0.0342945
-10.3429 -16.6234 497.125 -0.997269 -0.0659542 -0.0332504
-10.3112 -16.2871 496.919 -0.998411 -0.0351516 -0.0440542
-10.3256 -16.0236 496.728 -0.996202 -0.0763684 -0.0418289
-10.3468 -15.7706 496.539 -0.996018 -0.0768365 -0.0452124
-10.3491 -15.4873 496.344 -0.997288 -0.0577925 -0.0455772
-10.3712 -15.2352 496.155 -0.986059 -0.041483 -0.161145
-10.3141 -14.8567 495.939 -0.976784 -0.0316466 -0.211876
-10.2849 -14.5223 495.732 -0.977987 -0.0250194 -0.207158
-10.2663 -14.2044 495.529 -0.97899 -0.00590864 -0.203825
-10.1717 -13.765 495.299 -0.980515 0.0674595 -0.184496
-10.0862 -13.3396 495.071 -0.968173 0.0860558 -0.235021
-10.0024 -12.9164 494.844 -0.973254 0.0601767 -0.221711
1.11326 -20.8232 508.77 -0.0783075 -0.538379 0.839057
0.837202 -20.963 508.661 -0.0894988 -0.548865 0.831106
0.573166 -21.0849 508.549 -0.124331 -0.539205 0.832946
0.320795 -21.1896 508.434 -0.165865 -0.556199 0.814329
0.0664869 -21.2973 508.319 -0.177379 -0.582462 0.793269
-0.146511 -21.3432 508.193 -0.167354 -0.581597 0.796077
-0.412948 -21.4697 508.082 -0.195289 -0.592391 0.781623
-0.617565 -21.5035 507.954 -0.190889 -0.566867 0.801388
-0.875005 -21.6185 507.84 -0.220363 -0.53173 0.817743
-1.10909 -21.6945 507.721 -0.317822 -0.523907 0.790259
-1.32817 -21.7508 507.597 -0.274246 -0.559128 0.78241
-1.54911 -21.8096 507.474 -0.289169 -0.563869 0.773585
-1.77196 -21.8715 507.351 -0.332204 -0.559699 0.759195
-1.96432 -21.8856 507.22 -0.329818 -0.567559 0.754385
-2.18722 -21.9498 507.097 -0.312512 -0.547621 0.776175
-2.39256 -21.9857 506.97 -0.347461 -0.508851 0.787618
-2.61199 -22.0441 506.846 -0.398002 -0.505242 0.765718
-2.81277 -22.0718 506.718 -0.416284 -0.52634 0.7414
-3.00861 -22.094 506.588 -0.436783 -0.52872 0.727788
-3.19413 -22.1003 506.455 -0.423338 -0.540258 0.727259
-3.39711 -22.1332 506.328 -0.461162 -0.532421 0.709829
-3.56316 -22.11 506.189 -0.486045 -0.516684 0.704839
-3.7703 -22.1495 506.063 -0.484417 -0.514301 0.707696
-3.94718 -22.143 505.927 -0.518105 -0.514922 0.682951
-4.11799 -22.1273 505.79 -0.482019 -0.51915 0.705791
-4.31856 -22.1571 505.662 -0.508473 -0.51246 0.691983
-4.48284 -22.1316 505.523 -0.52101 -0.515775 0.680092
-4.67629 -22.1508 505.393 -0.51584 -0.505191 0.691875
-4.8398 -22.1242 505.254 -0.551928 -0.478995 0.682598
-5.01779 -22.12 505.12 -0.622937 -0.438033 0.648134
-5.16378 -22.0666 504.975 -0.611268 -0.423907 0.668322
-5.35942 -22.0895 504.846 -0.611064 -0.467518 0.638771
-5.50858 -22.0412 504.703 -0.678658 -0.495548 0.542084
-5.65762 -21.9927 504.559 -0.588892 -0.509327 0.627528
-5.83863 -21.9934 504.426 -0.61891 -0.450421 0.643484
-5.98038 -21.9337 504.28 -0.686377 -0.427153 0.58858
-6.12542 -21.8792 504.136 -0.655814 -0.443078 0.61122
-6.29866 -21.8681 504 -0.666959 -0.426582 0.610896
-6.45939 -21.8377 503.86 -0.688692 -0.44093 0.575573
-6.59907 -21.775 503.714 -0.707958 -0.430743 0.559693
-6.73576 -21.7075 503.567 -0.731067 -0.398162 0.554083
-6.87522 -21.6446 503.421 -0.754095 -0.371786 0.541402
-7.01793 -21.5869 503.276 -0.761303 -0.366893 0.534609
-7.15757 -21.5238 503.13 -0.770773 -0.368114 0.52
-7.28119 -21.4362 502.978 -0.762416 -0.389028 0.517087
-7.42027 -21.3725 502.832 -0.765452 -0.397067 0.506381
-7.54057 -21.2798 502.68 -0.787141 -0.376101 0.488833
-7.68015 -21.2161 502.533 -0.789166 -0.381392 0.481411
-7.81744 -21.1505 502.387 -0.781179 -0.392042 0.485862
-7.95662 -21.0868 502.24 -0.793088 -0.377781 0.4778
-8.06606 -20.9771 502.084 -0.839921 -0.351007 0.413916
-8.16899 -20.8572 501.926 -0.846727 -0.34999 0.4007
-8.29314 -20.7702 501.775 -0.806674 -0.374231 0.457415
-8.41939 -20.6864 501.624 -0.848105 -0.340124 0.406243
-8.54214 -20.5972 501.473 -0.867944 -0.335815 0.365926
-8.66434 -20.5071 501.321 -0.843495 -0.387293 0.372183
-8.74706 -20.3553 501.156 -0.865307 -0.341286 0.367106
-8.8505 -20.2358 500.998 -0.893461 -0.267836 0.360544
-8.94196 -20.0975 500.836 -0.923367 -0.243578 0.296756
-9.04173 -19.9721 500.676 -0.917988 -0.269651 0.290837
-9.13783 -19.8408 500.516 -0.901699 -0.276836 0.332116
-9.24222 -19.7224 500.358 -0.902995 -0.298922 0.308619
-9.34916 -19.608 500.2 -0.909203 -0.315059 0.27219
-9.42009 -19.437 500.031 -0.934289 -0.254139 0.250034
-9.49112 -19.266 499.862 -0.92632 -0.247469 0.28406
-9.60165 -19.1569 499.706 -0.929865 -0.237174 0.281246
-9.66842 -18.979 499.535 -0.960149 -0.195912 0.199331
-9.73591 -18.802 499.364 -0.960948 -0.192642 0.198667
-9.81668 -18.6458 499.198 -0.967714 -0.181849 0.17453
-9.86816 -18.4434 499.021 -0.975369 -0.159172 0.152706
-9.91749 -18.2374 498.844 -0.967934 -0.153896 0.198546
-9.99995 -18.0835 498.679 -0.970345 -0.17084 0.171008
-10.0635 -17.8994 498.505 -0.979326 -0.176585 0.0986841
-10.1152 -17.6966 498.329 -0.981261 -0.167183 0.0957914
-10.1556 -17.4757 498.148 -0.979364 -0.168797 0.111146
-10.2258 -17.3018 497.978 -0.980449 -0.170331 0.0985231
-10.2558 -17.0642 497.794 -0.991627 -0.105392 0.0746213
-10.2833 -16.8221 497.608 -0.994979 -0.072516 0.0689857
-10.3219 -16.5974 497.425 -0.994828 -0.0938444 0.0388664
-10.3352 -16.3324 497.235 -0.998156 -0.0462556 -0.039308
-10.3391 -16.0524 497.04 -0.997135 -0.0660902 -0.0367816
-10.3955 -15.8553 496.864 -0.993022 -0.0967015 -0.0674965
-10.3552 -15.5044 496.654 -0.99572 -0.0702029 -0.0601177
-10.4027 -15.2927 496.475 -0.997816 -0.0660556 -0.000686541
-10.3991 -14.9994 496.277 -0.997272 0.00144959 -0.073797
-10.3762 -14.6752 496.073 -0.992876 0.0355873 -0.113716
-10.34 -14.3293 495.863 -0.990797 0.0363965 -0.130369
-10.261 -13.915 495.639 -0.979517 0.0573569 -0.19302
-10.1871 -13.5082 495.416 -0.976871 0.0527223 -0.20723
-10.1674 -13.1875 495.212 -0.972937 0.0854026 -0.21471
-10.0036 -12.6362 494.956 -0.964401 0.116551 -0.237373
1.06341 -20.6283 508.903 -0.056098 -0.555514 0.829613
0.805307 -20.7411 508.789 -0.091819 -0.564227 0.820498
0.550447 -20.8493 508.674 -0.113543 -0.533399 0.838208
0.269676 -20.9967 508.567 -0.162945 -0.520011 0.838473
0.0442532 -21.0611 508.444 -0.202262 -0.543456 0.814706
-0.226685 -21.1942 508.334 -0.17363 -0.55764 0.81172
-0.456235 -21.2651 508.213 -0.256308 -0.538011 0.803026
-0.675003 -21.32 508.088 -0.242107 -0.548036 0.80065
-0.919225 -21.4135 507.971 -0.211446 -0.556661 0.80338
-1.12988 -21.4565 507.845 -0.278084 -0.529099 0.8017
-1.37011 -21.5452 507.727 -0.28092 -0.537466 0.795119
-1.58714 -21.5965 507.603 -0.295901 -0.557525 0.775634
-1.80259 -21.648 507.477 -0.336825 -0.533567 0.775793
-2.02564 -21.7093 507.355 -0.367718 -0.537999 0.758512
-2.21444 -21.7214 507.222 -0.345528 -0.565941 0.748546
-2.42994 -21.7722 507.098 -0.330707 -0.540655 0.773515
-2.64353 -21.8206 506.973 -0.368448 -0.514428 0.774345
-2.84411 -21.8485 506.845 -0.425098 -0.493095 0.759045
-3.04402 -21.8776 506.715 -0.44433 -0.483316 0.754305
-3.2472 -21.9107 506.588 -0.435847 -0.519061 0.735264
-3.43539 -21.9211 506.456 -0.484073 -0.507211 0.713029
-3.62489 -21.9336 506.324 -0.483333 -0.531547 0.695591
-3.80233 -21.9278 506.189 -0.460427 -0.556506 0.691598
-3.99016 -21.938 506.056 -0.527942 -0.492066 0.692205
-4.17147 -21.9383 505.923 -0.472482 -0.549679 0.688922
-4.36082 -21.951 505.791 -0.471535 -0.589671 0.6557
-4.53696 -21.9435 505.656 -0.518703 -0.556954 0.648652
-4.70901 -21.9299 505.519 -0.52901 -0.526953 0.665184
-4.88628 -21.9244 505.384 -0.572235 -0.493934 0.654658
-5.04927 -21.8971 505.245 -0.635327 -0.463947 0.617344
-5.20139 -21.8531 505.102 -0.550583 -0.478416 0.684087
-5.40915 -21.8945 504.977 -0.559514 -0.467856 0.684145
-5.55346 -21.8388 504.832 -0.710609 -0.399196 0.579377
-5.69792 -21.7831 504.687 -0.656969 -0.449952 0.604926
-5.847 -21.7353 504.544 -0.614991 -0.472613 0.631207
-6.02825 -21.7351 504.41 -0.678565 -0.440083 0.588113
-6.16835 -21.6735 504.264 -0.667122 -0.45091 0.592983
-6.32491 -21.6366 504.123 -0.639831 -0.449567 0.623303
-6.47175 -21.5848 503.979 -0.698792 -0.398357 0.594139
-6.62126 -21.5373 503.836 -0.738611 -0.368123 0.564747
-6.76091 -21.4743 503.69 -0.748792 -0.378038 0.544424
-6.9004 -21.4113 503.544 -0.752836 -0.394958 0.526541
-7.02837 -21.3303 503.394 -0.751374 -0.406485 0.519814
-7.16796 -21.2672 503.247 -0.751584 -0.402141 0.522881
-7.31542 -21.2165 503.104 -0.750345 -0.414335 0.515081
-7.4547 -21.1536 502.958 -0.773579 -0.403201 0.488881
-7.58581 -21.0768 502.808 -0.778436 -0.403743 0.480655
-7.7204 -21.0063 502.661 -0.779006 -0.417382 0.467912
-7.83156 -20.8991 502.505 -0.786114 -0.407188 0.464998
-7.96091 -20.8202 502.356 -0.792913 -0.367163 0.486292
-8.09803 -20.7533 502.208 -0.837592 -0.343994 0.424391
-8.21888 -20.6612 502.056 -0.846637 -0.360362 0.391593
-8.32963 -20.5532 501.901 -0.812958 -0.378315 0.442693
-8.46242 -20.4796 501.752 -0.837218 -0.375906 0.39719
-8.54859 -20.3332 501.588 -0.842333 -0.353514 0.406821
-8.68203 -20.2605 501.44 -0.871348 -0.270836 0.409145
-8.77679 -20.1274 501.279 -0.901695 -0.270313 0.337456
-8.8884 -20.0205 501.124 -0.88833 -0.336687 0.312267
-8.9898 -19.8976 500.965 -0.906491 -0.341482 0.248322
-9.07519 -19.7496 500.801 -0.917945 -0.329461 0.220979
-9.15322 -19.5899 500.634 -0.885886 -0.302629 0.3516
-9.28931 -19.521 500.486 -0.888638 -0.267782 0.37231
-9.3534 -19.3393 500.315 -0.930273 -0.23481 0.281882
-9.45802 -19.221 500.157 -0.942246 -0.228014 0.245321
-9.53486 -19.059 499.989 -0.929786 -0.244473 0.275193
-9.62432 -18.9166 499.826 -0.930829 -0.230146 0.283884
-9.70336 -18.7578 499.659 -0.960898 -0.190884 0.200594
-9.76957 -18.5787 499.488 -0.960762 -0.203602 0.188367
-9.8352 -18.3985 499.316 -0.970605 -0.179605 0.160209
-9.88801 -18.198 499.141 -0.980345 -0.158381 0.117637
-9.94779 -18.0082 498.967 -0.959119 -0.23985 0.150209
-10.0363 -17.8636 498.804 -0.958257 -0.242704 0.151126
-10.0844 -17.655 498.625 -0.981247 -0.159993 0.107506
-10.1302 -17.4428 498.447 -0.982571 -0.155369 0.10205
-10.1953 -17.2605 498.272 -0.977859 -0.176874 0.111835
-10.2426 -17.0501 498.094 -0.988667 -0.132895 0.0698294
-10.2636 -16.798 497.907 -0.994623 -0.0889876 0.0529778
-10.3089 -16.5842 497.728 -0.991209 -0.116563 0.0625899
-10.3495 -16.3627 497.548 -0.991739 -0.126712 -0.0199584
-10.3662 -16.1028 497.357 -0.988659 -0.108614 -0.103715
-10.3707 -15.8233 497.163 -0.988504 -0.133683 -0.0706293
-10.3892 -15.5658 496.974 -0.995284 -0.0699949 -0.0671654
-10.3803 -15.2646 496.775 -0.996019 -0.0508674 -0.0731976
-10.383 -14.9813 496.58 -0.995938 -0.0701481 -0.0564447
-10.3699 -14.6727 496.379 -0.99476 -0.00149091 -0.102226
-10.3278 -14.3176 496.168 -0.991448 0.0214958 -0.128717
-10.291 -13.9704 495.959 -0.990482 0.0294934 -0.134449
-10.287 -13.6752 495.76 -0.979299 0.0478197 -0.196689
-10.1919 -13.2342 495.53 -0.971781 0.0607301 -0.227933
-10.0661 -12.7437 495.288 -0.972615 0.104456 -0.207628
-9.98652 -12.3265 495.063 -0.959593 0.151553 -0.237093
-9.81199 -11.7569 494.803 -0.953538 0.157662 -0.256725
-9.63809 -11.1876 494.544 -0.941198 0.127942 -0.312694
