3.81729 -59.7539 452.114 -0.305499 0.566707 -0.765188
4.00626 -59.7291 452.062 -0.26274 0.553802 -0.790108
4.19518 -59.7051 452.014 -0.225731 0.550515 -0.803728
4.38723 -59.6822 451.979 -0.209757 0.552317 -0.806814
4.58005 -59.6593 451.945 -0.200481 0.536674 -0.819627
4.77263 -59.638 451.919 -0.20034 0.519971 -0.830358
4.96544 -59.6151 451.885 -0.209527 0.53054 -0.821356
5.15744 -59.5922 451.851 -0.202498 0.554296 -0.807311
5.34918 -59.5695 451.817 -0.159568 0.567722 -0.807607
5.54806 -59.5496 451.81 -0.108861 0.569434 -0.814797
5.74511 -59.5297 451.805 -0.109001 0.559687 -0.821504
5.93909 -59.5077 451.777 -0.16477 0.522375 -0.836645
6.13142 -59.485 451.743 -0.177209 0.519624 -0.835816
6.32905 -59.4649 451.735 -0.113401 0.560619 -0.820273
6.52958 -59.4462 451.74 -0.0720938 0.599963 -0.796773
6.72431 -59.4247 451.718 -0.0338205 0.584703 -0.810542
6.92491 -59.4059 451.723 -0.0325273 0.556266 -0.830367
7.12665 -59.3877 451.733 -0.0667294 0.565732 -0.821885
7.32689 -59.3688 451.737 -0.0271436 0.563586 -0.825611
7.53261 -59.3524 451.765 0.0266461 0.576566 -0.816616
7.73278 -59.3334 451.768 0.000368602 0.613267 -0.789875
7.93039 -59.3132 451.758 -0.0156247 0.615314 -0.788127
8.13649 -59.2969 451.788 0.0543078 0.581693 -0.811594
8.34871 -59.2835 451.845 0.0728669 0.602284 -0.794949
8.55421 -59.2669 451.872 0.142395 0.608623 -0.780578
8.76757 -59.2547 451.932 0.124632 0.591025 -0.796967
8.96476 -59.2333 451.921 -0.0144239 0.573492 -0.819084
9.17298 -59.2178 451.959 0.0856085 0.588661 -0.803835
9.38165 -59.2005 452.003 0.186561 0.598783 -0.77888
9.59293 -59.1885 452.05 0.171222 0.547375 -0.819185
9.80478 -59.1746 452.104 0.206125 0.526904 -0.824551
10.0245 -59.1642 452.193 0.234378 0.548611 -0.802554
10.2362 -59.1502 452.245 0.188793 0.539024 -0.82086
10.4545 -59.1399 452.324 0.200298 0.569214 -0.797418
10.6699 -59.1266 452.394 0.224998 0.589665 -0.775675
10.8849 -59.1139 452.46 0.238055 0.57118 -0.785546
11.1006 -59.1014 452.528 0.298326 0.545675 -0.783097
11.3253 -59.093 452.637 0.329987 0.529011 -0.781828
11.5463 -59.084 452.726 0.326157 0.539246 -0.776425
11.7718 -59.0752 452.838 0.320259 0.537573 -0.780032
11.9903 -59.0632 452.918 0.343337 0.502315 -0.793599
12.2206 -59.0583 453.047 0.374079 0.502512 -0.779453
12.444 -59.0448 453.155 0.409164 0.495796 -0.76601
12.672 -59.0402 453.269 0.403235 0.428316 -0.80867
12.8956 -59.0309 453.368 0.360581 0.424754 -0.830401
13.1229 -59.0231 453.484 0.465603 0.453781 -0.7598
13.3643 -59.0214 453.661 0.509648 0.406112 -0.758506
13.5924 -59.0137 453.778 0.434005 0.323248 -0.840922
13.8214 -59.0064 453.899 0.449301 0.341452 -0.825554
14.059 -59.0028 454.057 0.550626 0.349805 -0.757923
14.3008 -59.0008 454.232 0.568027 0.296584 -0.767713
14.5433 -58.9992 454.41 0.538253 0.298078 -0.78831
14.7849 -58.997 454.584 0.540281 0.333796 -0.772448
15.0222 -58.9928 454.737 0.56053 0.335995 -0.756911
15.2643 -58.9907 454.91 0.61305 0.287025 -0.736061
15.5223 -58.9952 455.152 0.628396 0.266906 -0.73067
15.7761 -58.9979 455.374 0.603827 0.355446 -0.713478
16.026 -58.9988 455.579 0.653387 0.465601 -0.59691
16.3304 -59.0228 456.017 0.644213 0.550244 -0.531244
16.6167 -59.0389 456.376 0.612809 0.645405 -0.455981
16.924 -59.0637 456.823 0.661106 0.636893 -0.396619
-4.3875 -61.2365 459.383 -0.88811 -0.0147569 -0.459395
-4.24356 -61.1833 459.076 -0.901004 0.0978888 -0.422622
-4.09742 -61.1333 458.781 -0.891978 0.163902 -0.421321
-3.94923 -61.0845 458.499 -0.867862 0.22883 -0.440968
-3.79511 -61.0393 458.249 -0.840709 0.263071 -0.473288
-3.01337 -60.8207 457.076 -0.808979 0.373055 -0.454294
-2.85851 -60.7766 456.836 -0.818251 0.382219 -0.429388
-2.70471 -60.7322 456.592 -0.806719 0.422874 -0.412774
-2.55317 -60.6877 456.336 -0.767547 0.495739 -0.406343
-2.40053 -60.6412 456.088 -0.715611 0.541686 -0.440995
-2.23797 -60.5982 455.895 -0.718801 0.510025 -0.472439
-2.07702 -60.5581 455.692 -0.729997 0.488807 -0.477674
-1.91785 -60.5199 455.479 -0.701348 0.50057 -0.507484
-1.75377 -60.4791 455.295 -0.66435 0.487173 -0.566835
-1.58516 -60.4449 455.133 -0.646517 0.452478 -0.614231
-1.41405 -60.4114 454.985 -0.672665 0.41079 -0.615445
-1.25059 -60.3711 454.799 -0.679675 0.394798 -0.618204
-1.08085 -60.3378 454.645 -0.652594 0.386696 -0.651603
-0.910229 -60.3026 454.497 -0.5866 0.377548 -0.71649
-0.734497 -60.2713 454.375 -0.546751 0.325119 -0.771597
-0.560565 -60.2356 454.247 -0.58716 0.238394 -0.773571
-0.384512 -60.205 454.127 -0.564626 0.238112 -0.790253
-0.206662 -60.1765 454.016 -0.512362 0.240153 -0.824507
-0.0267552 -60.147 453.917 -0.504057 0.192811 -0.841873
0.151841 -60.1169 453.812 -0.509734 0.154391 -0.846366
0.332824 -60.0881 453.719 -0.53179 0.15522 -0.83253
0.508996 -60.0569 453.602 -0.51945 0.172532 -0.836901
0.691402 -60.0288 453.517 -0.48235 0.173283 -0.858668
0.870382 -59.9987 453.415 -0.482794 0.183223 -0.856353
1.05148 -59.9703 453.324 -0.467972 0.222995 -0.855146
1.23746 -59.946 453.256 -0.46077 0.270649 -0.845245
1.41973 -59.917 453.172 -0.47078 0.322013 -0.821385
1.59761 -59.8862 453.066 -0.482321 0.345107 -0.805151
1.77573 -59.8562 452.961 -0.450762 0.372792 -0.811073
1.96199 -59.8304 452.897 -0.417729 0.406958 -0.812335
2.14397 -59.8024 452.812 -0.384865 0.436813 -0.813064
2.3287 -59.7758 452.74 -0.327063 0.431527 -0.840722
2.51984 -59.7525 452.701 -0.371884 0.407516 -0.834046
2.70006 -59.7237 452.607 -0.387429 0.434487 -0.813093
2.88588 -59.6977 452.541 -0.376385 0.425231 -0.823112
3.06976 -59.6708 452.466 -0.349018 0.442128 -0.826262
3.26095 -59.6475 452.427 -0.315303 0.484738 -0.815851
3.44807 -59.6222 452.368 -0.315473 0.47762 -0.819973
3.63686 -59.5978 452.318 -0.327557 0.481754 -0.812785
3.82188 -59.5715 452.249 -0.334883 0.52294 -0.783829
4.00834 -59.5463 452.189 -0.273919 0.542681 -0.794019
4.20082 -59.5234 452.154 -0.226015 0.541807 -0.809545
4.39297 -59.5005 452.12 -0.231654 0.552927 -0.80038
4.58104 -59.4759 452.066 -0.221648 0.554964 -0.801803
4.77292 -59.4531 452.032 -0.185847 0.554859 -0.810921
4.96812 -59.4317 452.009 -0.179311 0.550844 -0.815119
5.16273 -59.4105 451.989 -0.189584 0.551094 -0.812621
5.35593 -59.3876 451.958 -0.161509 0.555925 -0.815391
5.55004 -59.3662 451.935 -0.121157 0.552273 -0.824812
5.7445 -59.3445 451.91 -0.151233 0.51916 -0.84119
5.93786 -59.3223 451.882 -0.165824 0.493341 -0.853884
6.13547 -59.3021 451.871 -0.12866 0.517678 -0.845847
6.33084 -59.2811 451.856 -0.0592846 0.550899 -0.832464
6.53358 -59.2632 451.869 -0.0906962 0.549292 -0.830694
6.72678 -59.241 451.84 -0.0691428 0.547681 -0.833826
6.93322 -59.225 451.872 -0.0195839 0.559202 -0.8288
7.12915 -59.204 451.855 -0.0685129 0.5446 -0.835893
7.32651 -59.1836 451.844 -0.00632501 0.546614 -0.837361
7.5305 -59.1664 451.865 0.0847237 0.526365 -0.846027
7.74556 -59.1543 451.936 0.0136107 0.535721 -0.844285
7.94396 -59.1344 451.93 -0.058019 0.593362 -0.802842
8.14059 -59.1136 451.915 0.0847876 0.576172 -0.812919
8.35313 -59.1003 451.974 0.102215 0.542661 -0.833709
8.55275 -59.08 451.975 0.133254 0.5285 -0.83841
8.771 -59.07 452.058 0.109996 0.499141 -0.859511
8.97313 -59.0518 452.068 0.0166843 0.541254 -0.840694
9.17871 -59.035 452.093 0.11604 0.580034 -0.806285
9.39152 -59.0216 452.152 0.128099 0.559211 -0.819069
9.59652 -59.0045 452.174 0.146033 0.571669 -0.807384
9.81163 -58.992 452.242 0.22729 0.559671 -0.796936
10.0271 -58.9797 452.312 0.221891 0.527826 -0.819856
10.2391 -58.9648 452.366 0.230211 0.522872 -0.820736
10.459 -58.9559 452.452 0.245934 0.50123 -0.829629
10.6713 -58.9443 452.501 0.229849 0.487294 -0.842445
10.8884 -58.9295 452.582 0.24052 0.492831 -0.836222
11.1031 -58.9165 452.646 0.302371 0.489242 -0.818055
11.3281 -58.9081 452.756 0.351652 0.48549 -0.8004
11.5527 -58.8995 452.863 0.33973 0.478087 -0.809948
11.7733 -58.8896 452.95 0.308846 0.458158 -0.83349
11.9897 -58.8766 453.021 0.372963 0.409725 -0.832481
12.2227 -58.8745 453.16 0.41212 0.357301 -0.838149
12.4418 -58.8601 453.245 0.377464 0.374511 -0.846914
12.668 -58.8518 453.356 0.402554 0.389051 -0.828607
12.8986 -58.8455 453.486 0.420229 0.371373 -0.827943
13.1294 -58.8391 453.617 0.453204 0.39007 -0.801531
13.3562 -58.8309 453.729 0.4493 0.377174 -0.809857
13.5844 -58.8232 453.847 0.447692 0.33102 -0.830661
13.8202 -58.8188 453.998 0.46895 0.352539 -0.809816
14.0492 -58.8113 454.118 0.522545 0.334439 -0.784282
14.2937 -58.8105 454.305 0.564898 0.301392 -0.768149
14.5358 -58.8085 454.481 0.558464 0.306746 -0.77073
14.7787 -58.8067 454.66 0.549988 0.307164 -0.776636
15.0227 -58.8054 454.842 0.539262 0.327036 -0.776044
15.2627 -58.8022 455.007 0.573374 0.417423 -0.704983
15.5178 -58.8054 455.235 0.599508 0.505103 -0.620855
15.7879 -58.8149 455.528 0.598618 0.571549 -0.561238
16.0795 -58.8334 455.913 0.622727 0.616268 -0.482104
16.3657 -58.8494 456.272 0.652746 0.614402 -0.443208
16.681 -58.8776 456.755 0.642621 0.638699 -0.423204
16.9796 -58.8984 457.164 0.674349 0.618361 -0.403588
-4.41137 -61.0362 459.382 -0.835531 -0.103929 -0.539525
-4.25519 -60.9917 459.141 -0.876143 -0.0481743 -0.479638
-4.10399 -60.9446 458.873 -0.880908 0.0943227 -0.463794
-3.95042 -60.8989 458.619 -0.86846 0.187369 -0.458989
-3.01565 -60.6348 457.189 -0.819366 0.274883 -0.503069
-2.86087 -60.5906 456.948 -0.818227 0.30398 -0.487956
-2.70095 -60.5494 456.736 -0.801551 0.345721 -0.487845
-2.5385 -60.5096 456.538 -0.8053 0.370053 -0.463199
-2.38382 -60.4658 456.299 -0.773702 0.446794 -0.449178
-2.22673 -60.4252 456.073 -0.732936 0.499269 -0.4621
-2.06742 -60.3821 455.863 -0.73187 0.498642 -0.46446
-1.90715 -60.3416 455.656 -0.72181 0.511002 -0.466762
-1.74845 -60.3003 455.443 -0.682542 0.527355 -0.505997
-1.58139 -60.2661 455.271 -0.650562 0.517813 -0.555553
-1.41547 -60.2263 455.098 -0.666189 0.476557 -0.57366
-1.24482 -60.1919 454.949 -0.682898 0.44527 -0.579124
-1.08122 -60.1532 454.763 -0.663431 0.454346 -0.594499
-0.911834 -60.1177 454.609 -0.623173 0.449471 -0.640024
-0.741102 -60.0836 454.461 -0.593853 0.421864 -0.685105
-0.565924 -60.0491 454.339 -0.578814 0.404504 -0.708062
-0.391135 -60.0193 454.211 -0.562874 0.38634 -0.730694
-0.215256 -59.9878 454.091 -0.547019 0.35361 -0.758769
-0.0402733 -59.9558 453.967 -0.533529 0.305067 -0.788848
0.137964 -59.9238 453.861 -0.507256 0.250485 -0.82459
0.317521 -59.896 453.76 -0.520882 0.210954 -0.827151
0.495294 -59.8655 453.651 -0.525969 0.213557 -0.823256
0.672031 -59.8346 453.537 -0.475224 0.213741 -0.853509
0.856259 -59.8036 453.466 -0.450488 0.175322 -0.875399
1.03918 -59.7799 453.38 -0.424716 0.190849 -0.884982
1.22186 -59.7522 453.296 -0.407122 0.206347 -0.88976
1.40586 -59.7251 453.22 -0.443766 0.180012 -0.877876
1.58923 -59.6971 453.142 -0.463525 0.202872 -0.862547
1.77393 -59.671 453.069 -0.425505 0.295385 -0.855391
1.95632 -59.6432 452.985 -0.395414 0.335353 -0.855094
2.14239 -59.6173 452.92 -0.406658 0.320905 -0.855365
2.32414 -59.5892 452.833 -0.345636 0.35693 -0.867835
2.51186 -59.5641 452.777 -0.338567 0.334821 -0.879356
2.69923 -59.5389 452.718 -0.403686 0.330778 -0.853008
2.88052 -59.5106 452.63 -0.364033 0.414798 -0.83392
3.07105 -59.487 452.587 -0.306325 0.430464 -0.849038
3.25724 -59.4612 452.523 -0.326149 0.401373 -0.855877
3.44098 -59.4343 452.448 -0.309254 0.423992 -0.85123
3.63248 -59.4112 452.41 -0.274454 0.450464 -0.849563
3.82438 -59.3882 452.374 -0.327216 0.435631 -0.838544
4.0083 -59.3615 452.3 -0.286308 0.449033 -0.846403
4.20044 -59.3386 452.265 -0.20965 0.467848 -0.858583
4.39253 -59.3158 452.231 -0.230951 0.464187 -0.855098
4.58498 -59.2932 452.197 -0.227177 0.492415 -0.840189
4.77785 -59.2708 452.166 -0.191686 0.526223 -0.82846
4.9701 -59.2479 452.132 -0.177146 0.530443 -0.829005
5.1625 -59.2253 452.099 -0.185955 0.516169 -0.836056
5.35509 -59.2028 452.066 -0.169137 0.509047 -0.843958
5.55128 -59.1821 452.051 -0.160019 0.511843 -0.844044
5.74392 -59.1594 452.019 -0.181783 0.50934 -0.841147
5.93742 -59.1373 451.991 -0.139814 0.518623 -0.843494
6.13479 -59.117 451.981 -0.089701 0.52706 -0.845081
6.33477 -59.0979 451.983 -0.0597192 0.547417 -0.834726
6.53301 -59.078 451.977 -0.0929142 0.536462 -0.838794
6.72965 -59.0574 451.963 -0.0536818 0.536831 -0.84198
6.93126 -59.039 451.973 -0.036525 0.547654 -0.835907
7.12871 -59.0187 451.962 -0.0676174 0.553523 -0.830085
7.33377 -59.0019 451.988 -0.0322904 0.572892 -0.818995
7.53043 -58.9812 451.974 0.0868409 0.562732 -0.822065
7.74164 -58.9673 452.027 0.090727 0.525274 -0.846083
7.94352 -58.9489 452.037 -0.0694568 0.502764 -0.861629
8.14184 -58.929 452.03 0.0478569 0.545266 -0.836896
8.35333 -58.915 452.084 0.0885617 0.536673 -0.83913
8.55667 -58.8973 452.1 0.0973057 0.525379 -0.845286
8.76442 -58.8816 452.135 0.15192 0.516577 -0.842656
8.97705 -58.8681 452.194 0.0811278 0.506725 -0.858282
9.18213 -58.8511 452.217 0.100835 0.524948 -0.84514
9.38908 -58.8349 452.248 0.156461 0.507188 -0.847514
9.60634 -58.8233 452.326 0.151038 0.538431 -0.829023
9.8115 -58.8063 452.349 0.194975 0.535789 -0.821532
10.0296 -58.7981 452.424 0.232044 0.464761 -0.85449
10.2421 -58.7812 452.485 0.224199 0.452803 -0.862962
10.4533 -58.7667 452.534 0.241513 0.442399 -0.863687
10.672 -58.7566 452.615 0.246868 0.441359 -0.862704
10.886 -58.7423 452.677 0.255283 0.453192 -0.854077
11.1041 -58.7308 452.757 0.317858 0.44737 -0.835958
11.3281 -58.7219 452.861 0.356594 0.428243 -0.83033
11.5469 -58.7106 452.942 0.328886 0.422468 -0.844604
11.7676 -58.7001 453.031 0.28342 0.39828 -0.872379
11.9813 -58.6864 453.089 0.33823 0.379333 -0.861224
12.2045 -58.676 453.188 0.428299 0.32498 -0.843177
12.4395 -58.6725 453.339 0.406273 0.306452 -0.86083
12.661 -58.6621 453.43 0.398192 0.350863 -0.847548
12.8861 -58.6532 453.536 0.444808 0.347025 -0.825663
13.1189 -58.6476 453.675 0.453977 0.337864 -0.824471
13.3512 -58.6417 453.812 0.424744 0.32245 -0.845943
13.576 -58.6325 453.915 0.462069 0.350554 -0.814619
13.8151 -58.6294 454.08 0.461915 0.358304 -0.811327
14.0405 -58.6203 454.184 0.495973 0.380224 -0.780667
14.2874 -58.6204 454.382 0.541178 0.413399 -0.732276
14.5262 -58.6168 454.543 0.532585 0.414526 -0.737917
14.7713 -58.616 454.731 0.529487 0.435342 -0.728094
15.0104 -58.6124 454.892 0.560461 0.47411 -0.679046
15.2844 -58.6237 455.204 0.584635 0.552146 -0.594422
15.5556 -58.6336 455.502 0.593041 0.60704 -0.528966
15.8384 -58.6483 455.85 0.60768 0.634354 -0.477828
16.1177 -58.6613 456.18 0.628085 0.6337 -0.45159
16.4234 -58.6853 456.623 0.678342 0.588949 -0.439308
16.7362 -58.7121 457.095 0.680126 0.586347 -0.44003
17.0327 -58.7318 457.494 0.713223 0.544569 -0.441314
-3.02136 -60.4469 457.283 -0.811224 0.22718 -0.538799
-2.85558 -60.4087 457.1 -0.811231 0.252582 -0.527358
-2.70389 -60.3631 456.844 -0.796859 0.285046 -0.532695
-2.54115 -60.3235 456.647 -0.78764 0.288559 -0.544386
-2.38043 -60.2829 456.44 -0.791705 0.314579 -0.523683
-2.21708 -60.2439 456.248 -0.771472 0.375342 -0.51376
-2.05746 -60.2029 456.037 -0.752023 0.424701 -0.504074
-1.89433 -60.1639 455.845 -0.746126 0.463253 -0.478218
-1.73791 -60.1193 455.621 -0.703506 0.52733 -0.476448
-1.57187 -60.0841 455.444 -0.658822 0.565266 -0.496415
-1.40866 -60.0429 455.257 -0.656672 0.55496 -0.510687
-1.2438 -60.0077 455.075 -0.66044 0.524 -0.537814
-1.07567 -59.9683 454.916 -0.672282 0.488596 -0.556158
-0.909993 -59.9346 454.738 -0.640189 0.501241 -0.582164
-0.739015 -59.9004 454.592 -0.591975 0.518403 -0.617109
-0.56533 -59.8675 454.46 -0.57797 0.510489 -0.636672
-0.393927 -59.8336 454.316 -0.581566 0.462496 -0.669238
-0.21922 -59.8014 454.19 -0.576875 0.445148 -0.684878
-0.0462855 -59.7684 454.055 -0.57128 0.417105 -0.706868
0.128063 -59.7331 453.931 -0.529461 0.38984 -0.753456
0.307127 -59.7063 453.826 -0.512254 0.361757 -0.778927
0.486288 -59.6764 453.724 -0.53323 0.316577 -0.784503
0.663598 -59.6437 453.615 -0.510476 0.317028 -0.799317
0.840457 -59.6136 453.501 -0.44269 0.290167 -0.848427
1.02585 -59.5888 453.43 -0.415381 0.272465 -0.867883
1.20954 -59.5615 453.352 -0.426584 0.260871 -0.866009
1.39086 -59.5331 453.262 -0.42227 0.246507 -0.872309
1.57399 -59.5029 453.185 -0.384795 0.226567 -0.894763
1.76162 -59.4804 453.124 -0.389447 0.186796 -0.901908
1.94491 -59.4531 453.045 -0.40641 0.225933 -0.885316
2.12776 -59.4255 452.963 -0.380614 0.236527 -0.893973
2.31619 -59.4008 452.91 -0.367926 0.241763 -0.897876
2.49951 -59.3735 452.831 -0.328704 0.273783 -0.903878
2.6891 -59.3495 452.784 -0.319809 0.258595 -0.91151
2.88027 -59.3259 452.743 -0.358994 0.295846 -0.885211
3.06006 -59.2971 452.648 -0.335203 0.312527 -0.8888
3.25034 -59.2734 452.604 -0.302458 0.298141 -0.905335
3.44243 -59.2504 452.569 -0.284264 0.346169 -0.89407
3.63067 -59.2257 452.515 -0.281543 0.371566 -0.884688
3.81511 -59.1991 452.443 -0.320199 0.354076 -0.878694
4.00409 -59.1748 452.393 -0.276092 0.386601 -0.87995
4.19599 -59.1519 452.357 -0.209864 0.423626 -0.881191
4.38803 -59.129 452.323 -0.195583 0.425379 -0.883629
4.58236 -59.1072 452.297 -0.187093 0.425719 -0.885302
4.7757 -59.0849 452.267 -0.185283 0.429142 -0.884029
4.96981 -59.0634 452.244 -0.191944 0.434258 -0.880101
5.16228 -59.0405 452.21 -0.195311 0.444633 -0.87416
5.35628 -59.0186 452.183 -0.164654 0.459582 -0.872739
5.55006 -58.9966 452.158 -0.158564 0.460043 -0.873623
5.74495 -58.9751 452.135 -0.17266 0.457898 -0.872077
5.93931 -58.9533 452.111 -0.130991 0.486566 -0.863768
6.13703 -58.9332 452.102 -0.0637988 0.521155 -0.851074
6.33753 -58.9143 452.107 -0.0691042 0.507714 -0.85875
6.53331 -58.8932 452.089 -0.0898747 0.478972 -0.873218
6.73308 -58.8739 452.09 -0.0364075 0.503 -0.863519
6.93573 -58.856 452.104 -0.0224604 0.497593 -0.86712
7.1373 -58.8376 452.112 -0.0373285 0.507455 -0.860869
7.33407 -58.8169 452.099 -0.0368851 0.530003 -0.847193
7.53709 -58.7991 452.114 0.0466526 0.518006 -0.854104
7.74368 -58.7829 452.146 0.0649067 0.511089 -0.857073
7.94507 -58.7643 452.153 -0.0114807 0.477797 -0.878395
8.14921 -58.747 452.173 0.0470586 0.491512 -0.869599
8.35269 -58.7293 452.189 0.0831238 0.488215 -0.868756
8.55906 -58.7129 452.219 0.101721 0.462245 -0.880898
8.7695 -58.6984 452.267 0.144625 0.467006 -0.872347
8.97585 -58.6819 452.296 0.115084 0.441342 -0.889928
9.1822 -58.6654 452.325 0.0970542 0.443462 -0.891023
9.39093 -58.65 452.364 0.196176 0.487021 -0.851073
9.60835 -58.6387 452.442 0.169451 0.460779 -0.871189
9.81181 -58.6205 452.457 0.138448 0.421291 -0.896296
10.0214 -58.6048 452.501 0.230392 0.403633 -0.885438
10.2369 -58.5936 452.567 0.225672 0.395771 -0.89019
10.4512 -58.5794 452.632 0.24564 0.419621 -0.87383
10.6676 -58.5675 452.703 0.26756 0.403475 -0.874997
10.8842 -58.5553 452.776 0.270742 0.388789 -0.880649
11.1013 -58.5433 452.85 0.321693 0.367835 -0.872474
11.3207 -58.5323 452.934 0.369417 0.31971 -0.872535
11.5484 -58.5249 453.055 0.31746 0.342675 -0.88419
11.7585 -58.5096 453.096 0.2736 0.384555 -0.881624
11.9824 -58.5004 453.199 0.29409 0.402397 -0.866942
12.1959 -58.4846 453.259 0.401037 0.384062 -0.831664
12.4295 -58.4814 453.4 0.427681 0.365719 -0.826643
12.6536 -58.472 453.502 0.391805 0.3929 -0.831937
12.8871 -58.4668 453.645 0.426075 0.40635 -0.808295
13.1131 -58.4581 453.754 0.43268 0.373108 -0.820718
13.3399 -58.4497 453.866 0.447996 0.334166 -0.829236
13.577 -58.4458 454.023 0.456051 0.402115 -0.793927
13.8062 -58.4382 454.145 0.460002 0.451808 -0.764374
14.0502 -58.4371 454.331 0.500785 0.478424 -0.721336
14.2946 -58.436 454.517 0.510445 0.508154 -0.693704
14.5365 -58.4337 454.692 0.504633 0.539745 -0.673811
14.7867 -58.4349 454.902 0.496971 0.609078 -0.618097
15.043 -58.4373 455.14 0.544131 0.64144 -0.540811
15.3177 -58.4499 455.452 0.578887 0.642546 -0.50202
15.5842 -58.4576 455.73 0.601467 0.641231 -0.476508
15.8834 -58.479 456.147 0.617811 0.636561 -0.461627
16.167 -58.4936 456.496 0.627011 0.632087 -0.455327
16.4579 -58.5111 456.875 0.688029 0.570595 -0.448372
16.7679 -58.5365 457.334 0.706699 0.522644 -0.476885
17.0558 -58.5523 457.696 0.739957 0.475935 -0.475341
-3.02835 -60.2582 457.37 -0.793853 0.269343 -0.545208
-2.8684 -60.217 457.157 -0.800029 0.251836 -0.544547
-2.70768 -60.1762 456.948 -0.803182 0.247865 -0.541722
-2.54653 -60.1358 456.743 -0.768339 0.308481 -0.560798
-2.38282 -60.0969 456.551 -0.764972 0.306352 -0.566539
-2.2211 -60.057 456.35 -0.758099 0.320357 -0.568029
-2.05475 -60.0197 456.174 -0.736643 0.379865 -0.559518
-1.88895 -59.9821 455.996 -0.733317 0.410338 -0.542097
-1.7215 -59.9455 455.827 -0.722036 0.44808 -0.527152
-1.5587 -59.9065 455.634 -0.691709 0.507771 -0.513524
-1.39324 -59.869 455.457 -0.693534 0.523563 -0.494866
-1.23324 -59.8288 455.251 -0.674957 0.547532 -0.494612
-1.06874 -59.7909 455.069 -0.651535 0.559709 -0.512081
-0.901552 -59.7546 454.902 -0.622829 0.56872 -0.537254
-0.730239 -59.7205 454.757 -0.584741 0.583353 -0.563717
-0.559541 -59.6861 454.609 -0.60415 0.558061 -0.568834
-0.392628 -59.6498 454.442 -0.579476 0.540383 -0.610076
-0.21353 -59.6199 454.338 -0.588934 0.508226 -0.628382
-0.0487192 -59.5827 454.162 -0.583665 0.519439 -0.624114
0.130977 -59.5532 454.062 -0.529862 0.548346 -0.646964
0.302495 -59.5196 453.921 -0.529701 0.486636 -0.694696
0.480746 -59.4894 453.814 -0.524809 0.450617 -0.722164
0.656037 -59.4578 453.693 -0.530986 0.462985 -0.709718
0.834515 -59.4278 453.588 -0.452462 0.46566 -0.760552
1.01929 -59.4011 453.515 -0.420571 0.40458 -0.812056
1.19811 -59.3714 453.412 -0.43897 0.362503 -0.822129
1.38349 -59.345 453.342 -0.443473 0.390869 -0.806569
1.56119 -59.3148 453.235 -0.420195 0.373918 -0.826814
1.74519 -59.2879 453.159 -0.353827 0.353554 -0.865914
1.93528 -59.2637 453.112 -0.401976 0.340345 -0.850047
2.11481 -59.2346 453.015 -0.379268 0.320088 -0.868159
2.3036 -59.2101 452.963 -0.34437 0.28349 -0.89501
2.48867 -59.1837 452.893 -0.344364 0.254022 -0.903818
2.676 -59.1584 452.834 -0.27395 0.239527 -0.931439
2.86489 -59.1339 452.783 -0.342318 0.194928 -0.919142
3.05012 -59.1077 452.714 -0.352866 0.238959 -0.904646
3.23801 -59.083 452.66 -0.253942 0.283835 -0.924636
3.42834 -59.059 452.613 -0.251985 0.237032 -0.938254
3.61818 -59.0349 452.569 -0.290023 0.25026 -0.923719
3.80978 -59.0117 452.53 -0.290997 0.297036 -0.909445
3.99868 -58.9878 452.482 -0.242258 0.332401 -0.911494
4.19126 -58.9649 452.447 -0.206204 0.339436 -0.917749
4.38363 -58.942 452.413 -0.192286 0.337686 -0.921409
4.57558 -58.9196 452.379 -0.178411 0.327917 -0.927707
4.76956 -58.8971 452.351 -0.172253 0.313405 -0.933866
4.9621 -58.8746 452.319 -0.172424 0.304729 -0.936702
5.15661 -58.853 452.295 -0.174944 0.320449 -0.930971
5.34989 -58.8307 452.265 -0.157939 0.333469 -0.929437
5.54549 -58.8096 452.246 -0.151229 0.315737 -0.936718
5.73866 -58.7871 452.217 -0.133241 0.32316 -0.936918
5.93716 -58.7673 452.212 -0.0819371 0.366035 -0.926987
6.1368 -58.748 452.212 -0.0698995 0.392709 -0.917003
6.33211 -58.7265 452.189 -0.0919962 0.356686 -0.929684
6.5285 -58.706 452.179 -0.052741 0.373607 -0.926087
6.73182 -58.6882 452.193 -0.0324583 0.392803 -0.91905
6.92593 -58.6663 452.169 0.00611827 0.35309 -0.935569
7.13322 -58.6505 452.203 0.00717498 0.365274 -0.930872
7.33414 -58.6317 452.209 -0.0389519 0.39888 -0.916175
7.53236 -58.6116 452.201 0.0537214 0.407674 -0.911546
7.74067 -58.5962 452.241 0.0397587 0.393086 -0.918642
7.93774 -58.5756 452.228 0.0151674 0.395007 -0.918553
8.14423 -58.5592 452.259 0.0584301 0.381188 -0.922649
8.34752 -58.5428 452.272 0.0702675 0.362397 -0.929371
8.55385 -58.5266 452.3 0.122382 0.377248 -0.917991
8.76001 -58.5085 452.332 0.130872 0.362459 -0.922765
8.96777 -58.4926 452.367 0.12934 0.355159 -0.925815
9.17823 -58.4779 452.414 0.164913 0.37602 -0.911818
9.39173 -58.4646 452.475 0.182897 0.377523 -0.907758
9.59644 -58.4501 452.49 0.141962 0.345493 -0.927621
9.80492 -58.4316 452.533 0.13614 0.343039 -0.929403
10.0152 -58.4166 452.578 0.223016 0.401122 -0.888462
10.2339 -58.4059 452.661 0.245631 0.42497 -0.871244
10.4459 -58.3913 452.714 0.232339 0.414755 -0.879771
10.66 -58.3772 452.777 0.254734 0.398207 -0.881216
10.8751 -58.3642 452.843 0.257855 0.374842 -0.890508
11.0891 -58.3516 452.901 0.288545 0.331359 -0.8983
11.3075 -58.3401 452.981 0.379204 0.346616 -0.85794
11.5362 -58.333 453.106 0.347874 0.354364 -0.867992
11.7559 -58.3219 453.19 0.296952 0.357442 -0.885469
11.9762 -58.3129 453.273 0.293223 0.385705 -0.874786
12.1917 -58.298 453.342 0.390323 0.378592 -0.839235
12.4301 -58.2949 453.508 0.437208 0.395594 -0.807684
12.6542 -58.2855 453.61 0.39664 0.441464 -0.804852
12.8823 -58.2777 453.729 0.391559 0.441591 -0.807266
13.1034 -58.2669 453.816 0.388842 0.43858 -0.810216
13.3378 -58.2617 453.962 0.455832 0.496657 -0.738613
13.5799 -58.2598 454.14 0.447387 0.552128 -0.703562
13.8173 -58.2551 454.299 0.442262 0.588875 -0.676484
14.0571 -58.2495 454.472 0.480064 0.59694 -0.642807
14.3033 -58.2521 454.659 0.488972 0.610372 -0.623179
14.5551 -58.2488 454.888 0.510451 0.639316 -0.575078
14.8228 -58.2636 455.16 0.520904 0.663294 -0.537307
15.083 -58.2676 455.415 0.543628 0.675398 -0.498303
15.3586 -58.2791 455.733 0.582295 0.65637 -0.479698
15.6457 -58.2953 456.1 0.602128 0.649485 -0.464339
15.9233 -58.3074 456.423 0.628494 0.622435 -0.466444
16.2125 -58.3241 456.796 0.653342 0.572221 -0.495689
16.494 -58.3374 457.133 0.688507 0.537067 -0.487357
16.7923 -58.3576 457.542 0.712813 0.491518 -0.500308
17.0861 -58.3757 457.929 0.751441 0.425787 -0.504026
17.3898 -58.3978 458.357 0.786989 0.324724 -0.524597
17.6761 -58.4121 458.708 0.792166 0.174536 -0.584816
17.9726 -58.4316 459.102 0.759925 0.0971019 -0.642717
-3.02836 -60.0732 457.495 -0.805015 0.232901 -0.545626
-2.87081 -60.0307 457.268 -0.799795 0.261306 -0.540414
-2.71122 -59.9895 457.053 -0.774163 0.311465 -0.551055
-2.5466 -59.9509 456.866 -0.766377 0.333054 -0.54931
-2.38865 -59.909 456.644 -0.755055 0.331617 -0.565616
-2.21988 -59.8728 456.48 -0.71831 0.372643 -0.587509
-2.05318 -59.8357 456.305 -0.716004 0.381704 -0.5845
-1.88873 -59.7975 456.12 -0.722098 0.353165 -0.594851
-1.72378 -59.7596 455.937 -0.70534 0.371497 -0.603726
-1.5518 -59.7268 455.791 -0.704886 0.404216 -0.582877
-1.38764 -59.6873 455.607 -0.712961 0.423563 -0.558821
-1.21831 -59.6519 455.449 -0.705787 0.463814 -0.535482
-1.05525 -59.6134 455.26 -0.668609 0.53137 -0.5202
-0.887048 -59.5776 455.098 -0.623856 0.577521 -0.526566
-0.719968 -59.5412 454.93 -0.600516 0.585924 -0.544127
-0.548038 -59.5075 454.788 -0.626896 0.569541 -0.531624
-0.384518 -59.4695 454.604 -0.580278 0.61355 -0.535569
-0.210272 -59.4371 454.475 -0.54509 0.621099 -0.563127
-0.0340085 -59.4057 454.356 -0.548388 0.611734 -0.570134
0.139413 -59.373 454.224 -0.575017 0.588452 -0.568401
0.30267 -59.3352 454.04 -0.545278 0.56716 -0.617253
0.488585 -59.3089 453.972 -0.489428 0.563914 -0.665177
0.662864 -59.2767 453.845 -0.537702 0.527891 -0.657425
0.838136 -59.2452 453.724 -0.500379 0.556923 -0.662916
1.01057 -59.2122 453.588 -0.440992 0.543982 -0.713869
1.19988 -59.1878 453.538 -0.403012 0.464564 -0.788519
1.38142 -59.1595 453.449 -0.463745 0.411309 -0.784707
1.56046 -59.1299 453.348 -0.446412 0.446275 -0.7756
1.74603 -59.1037 453.279 -0.352757 0.486657 -0.799204
1.93042 -59.0769 453.205 -0.420706 0.441473 -0.792533
2.10784 -59.0466 453.096 -0.41687 0.413665 -0.809383
2.29434 -59.0209 453.033 -0.372223 0.403027 -0.836074
2.4747 -58.9922 452.939 -0.369132 0.379323 -0.848443
2.66324 -58.9675 452.886 -0.311683 0.359437 -0.879579
2.84984 -58.942 452.824 -0.303432 0.336091 -0.891612
3.04178 -58.9189 452.788 -0.325994 0.328325 -0.886527
3.22487 -58.8919 452.71 -0.301921 0.305826 -0.902947
3.41644 -58.8685 452.67 -0.236758 0.297739 -0.924823
3.60859 -58.8456 452.635 -0.243256 0.277952 -0.929284
3.79713 -58.8211 452.583 -0.258668 0.2515 -0.932652
3.98716 -58.7972 452.538 -0.235962 0.265047 -0.934918
4.1785 -58.7741 452.499 -0.206628 0.281034 -0.93719
4.37081 -58.7512 452.464 -0.201518 0.286679 -0.936593
4.56292 -58.7284 452.43 -0.192401 0.292357 -0.936754
4.7554 -58.7057 452.396 -0.179617 0.285197 -0.941488
4.94964 -58.6837 452.369 -0.153424 0.276982 -0.948547
5.14491 -58.6627 452.352 -0.159584 0.274481 -0.948258
5.33755 -58.6399 452.318 -0.174006 0.277334 -0.944885
5.52998 -58.6172 452.284 -0.143137 0.288572 -0.946699
5.72752 -58.5969 452.275 -0.0898776 0.313835 -0.945214
5.9263 -58.5772 452.271 -0.0485018 0.317372 -0.94706
6.12468 -58.5572 452.266 -0.0974912 0.257753 -0.96128
6.31804 -58.535 452.236 -0.0666278 0.249657 -0.966039
6.52381 -58.5185 452.265 -0.0243991 0.292711 -0.95589
6.71726 -58.4962 452.236 -0.0664222 0.262568 -0.962625
6.91843 -58.4775 452.243 0.0247949 0.301805 -0.953047
7.12391 -58.4609 452.27 0.0462228 0.358403 -0.932422
7.3238 -58.4415 452.27 -0.0253243 0.338317 -0.940691
7.5252 -58.4229 452.278 0.0459827 0.339532 -0.93947
7.73069 -58.4065 452.303 0.0513979 0.316505 -0.947197
7.93379 -58.3883 452.319 0.00762084 0.319999 -0.947387
8.13297 -58.3672 452.318 0.04541 0.3208 -0.946058
8.33718 -58.3491 452.338 0.0917052 0.318264 -0.943556
8.54637 -58.336 452.377 0.109486 0.360141 -0.926451
8.75293 -58.3237 452.4 0.121157 0.379866 -0.917073
8.96215 -58.3054 452.447 0.148857 0.373247 -0.915712
9.16893 -58.2879 452.48 0.171065 0.350298 -0.920885
9.37697 -58.2703 452.519 0.155959 0.335969 -0.928871
9.58807 -58.2571 452.566 0.138662 0.346912 -0.927591
9.798 -58.2425 452.609 0.18843 0.400381 -0.896766
10.013 -58.2244 452.686 0.240448 0.440819 -0.864791
10.229 -58.2172 452.746 0.233489 0.431227 -0.871508
10.4422 -58.2043 452.802 0.217231 0.417869 -0.882154
10.657 -58.1913 452.867 0.228074 0.420701 -0.878062
10.8697 -58.1764 452.923 0.212519 0.405988 -0.888824
11.0812 -58.1618 452.972 0.292133 0.424657 -0.856928
11.3116 -58.1554 453.105 0.3575 0.459716 -0.81293
11.5295 -58.1436 453.182 0.329402 0.436133 -0.837426
11.7491 -58.1324 453.266 0.31364 0.40032 -0.861031
11.9701 -58.1217 453.355 0.29043 0.421825 -0.858903
12.1886 -58.1096 453.434 0.389231 0.470508 -0.79191
12.4241 -58.1054 453.586 0.442772 0.482004 -0.756059
12.6565 -58.0995 453.725 0.379679 0.499943 -0.778396
12.8807 -58.0874 453.832 0.362679 0.535679 -0.762569
13.1152 -58.0848 453.973 0.405521 0.590822 -0.697483
13.3585 -58.0834 454.158 0.441047 0.639131 -0.63007
13.5997 -58.0809 454.332 0.433792 0.652938 -0.620884
13.8406 -58.0783 454.504 0.429564 0.663165 -0.612933
14.0845 -58.0756 454.692 0.444868 0.694548 -0.565416
14.3393 -58.0798 454.921 0.475294 0.699194 -0.534063
14.5964 -58.0798 455.17 0.515864 0.677893 -0.52378
14.8548 -58.0821 455.42 0.535071 0.68172 -0.498956
15.1311 -58.0998 455.728 0.541867 0.687358 -0.483652
15.3956 -58.1065 455.997 0.610153 0.621198 -0.491759
15.6824 -58.1224 456.362 0.648665 0.556659 -0.519003
15.9524 -58.1309 456.652 0.654576 0.53063 -0.538481
16.2294 -58.1424 456.972 0.6926 0.478046 -0.540163
16.5204 -58.1595 457.35 0.71231 0.45128 -0.53755
16.8059 -58.1741 457.703 0.719223 0.437666 -0.539599
17.09 -58.1879 458.049 0.749805 0.347987 -0.562758
17.3757 -58.2043 458.4 0.767671 0.221229 -0.601447
17.6549 -58.2138 458.721 0.775443 0.146798 -0.614116
17.9478 -58.2307 459.1 0.717996 0.0485489 -0.694352
-3.04022 -59.8818 457.557 -0.798213 0.128388 -0.588534
-2.87646 -59.8427 457.363 -0.786787 0.212971 -0.579318
-2.71087 -59.8046 457.179 -0.765427 0.305967 -0.566132
-2.55009 -59.7641 456.971 -0.775221 0.309823 -0.550493
-2.38805 -59.7244 456.771 -0.738106 0.358037 -0.571847
-2.21939 -59.6882 456.605 -0.710653 0.38419 -0.589381
-2.05778 -59.6484 456.404 -0.742514 0.327239 -0.584455
-1.89358 -59.6096 456.217 -0.720093 0.326243 -0.612398
-1.72204 -59.5744 456.069 -0.680307 0.372447 -0.631242
-1.55455 -59.5392 455.9 -0.689972 0.38587 -0.612408
-1.38672 -59.5022 455.734 -0.692135 0.3834 -0.611517
-1.21753 -59.4676 455.575 -0.678875 0.40337 -0.613532
-1.04575 -59.4336 455.43 -0.673437 0.446222 -0.58938
-0.877296 -59.3997 455.267 -0.658783 0.486013 -0.574279
-0.70852 -59.3624 455.109 -0.626895 0.5159 -0.583823
-0.536045 -59.329 454.97 -0.616144 0.533627 -0.579318
-0.362191 -59.2963 454.838 -0.609173 0.563796 -0.557711
-0.193418 -59.2611 454.68 -0.555758 0.618566 -0.555436
-0.0211732 -59.2277 454.541 -0.562562 0.610032 -0.558018
0.146902 -59.1922 454.381 -0.616367 0.568738 -0.544637
0.31821 -59.1585 454.238 -0.552145 0.619312 -0.558202
0.489405 -59.1247 454.094 -0.492792 0.627618 -0.602704
0.666492 -59.094 453.981 -0.503416 0.594388 -0.627117
0.847933 -59.0655 453.891 -0.524833 0.589146 -0.614375
1.02109 -59.0329 453.759 -0.520405 0.578831 -0.627801
1.19034 -58.9984 453.607 -0.426309 0.58091 -0.693401
1.37734 -58.9728 453.545 -0.415309 0.555822 -0.720125
1.56007 -58.9451 453.462 -0.411981 0.559558 -0.719143
1.74348 -58.9178 453.383 -0.379967 0.553122 -0.741405
1.92762 -58.8909 453.307 -0.444056 0.496206 -0.746052
2.10719 -58.8617 453.209 -0.431637 0.477455 -0.765327
2.29216 -58.8352 453.138 -0.3921 0.483292 -0.782743
2.47648 -58.8084 453.064 -0.392496 0.490362 -0.778134
2.65909 -58.7808 452.981 -0.332395 0.510835 -0.792818
2.84839 -58.7565 452.932 -0.305393 0.510752 -0.803659
3.03258 -58.7297 452.857 -0.349732 0.458842 -0.816794
3.21728 -58.7033 452.786 -0.319744 0.426893 -0.845888
3.40777 -58.6796 452.742 -0.259932 0.441033 -0.859026
3.59408 -58.6539 452.679 -0.271615 0.388478 -0.880517
3.78515 -58.6305 452.638 -0.252732 0.361988 -0.897269
3.97673 -58.6074 452.601 -0.228559 0.378404 -0.896979
4.16872 -58.5845 452.566 -0.20665 0.383155 -0.900271
4.36223 -58.5623 452.536 -0.201531 0.379649 -0.902913
4.55451 -58.5394 452.502 -0.205543 0.371523 -0.905385
4.74678 -58.5166 452.467 -0.196511 0.387656 -0.900614
4.93916 -58.4939 452.433 -0.163131 0.400547 -0.901638
5.1338 -58.4722 452.409 -0.162927 0.397388 -0.903071
5.32747 -58.4501 452.383 -0.172822 0.398609 -0.900691
5.5243 -58.4294 452.367 -0.128672 0.391346 -0.911204
5.71985 -58.4083 452.352 -0.0925647 0.354847 -0.930331
5.91592 -58.3872 452.333 -0.105208 0.297901 -0.948781
6.10852 -58.3645 452.3 -0.110714 0.283954 -0.952425
6.30865 -58.3454 452.302 -0.033078 0.332668 -0.942464
6.5078 -58.3258 452.3 -0.0551659 0.320895 -0.945507
6.70395 -58.3048 452.283 -0.0390028 0.346317 -0.937306
6.91104 -58.2888 452.318 0.0707867 0.400393 -0.913605
7.1161 -58.2719 452.343 0.0254377 0.379194 -0.924968
7.31583 -58.2525 452.343 -0.0311447 0.380457 -0.924274
7.51497 -58.2324 452.34 0.0146916 0.402149 -0.915456
7.71808 -58.2149 452.354 0.0472266 0.395402 -0.917293
7.92152 -58.1971 452.371 0.00183847 0.368027 -0.929813
8.12161 -58.1778 452.371 0.0395945 0.338836 -0.940012
8.33031 -58.1624 452.412 0.13112 0.345743 -0.929123
8.53838 -58.1443 452.453 0.129424 0.365549 -0.92175
8.74679 -58.1291 452.491 0.113555 0.389606 -0.913954
8.95179 -58.1122 452.513 0.122606 0.399244 -0.90861
9.16107 -58.0985 452.551 0.15057 0.392435 -0.907372
9.37343 -58.0846 452.607 0.159397 0.388726 -0.907461
9.58061 -58.0682 452.639 0.186414 0.407391 -0.894026
9.79842 -58.0566 452.718 0.225674 0.446191 -0.866017
10.0094 -58.0378 452.774 0.228619 0.445606 -0.865545
10.225 -58.0292 452.835 0.218946 0.427407 -0.877146
10.4381 -58.0154 452.892 0.218296 0.431111 -0.875494
10.6513 -57.9983 452.956 0.209335 0.437045 -0.87474
10.8635 -57.9855 453.005 0.228673 0.461146 -0.857352
11.0874 -57.9775 453.107 0.314526 0.510105 -0.800542
11.3071 -57.9636 453.198 0.321942 0.498937 -0.804621
11.5272 -57.9559 453.278 0.287223 0.469481 -0.834919
11.7467 -57.9433 453.364 0.304125 0.513674 -0.802276
11.9713 -57.9354 453.466 0.318949 0.552263 -0.770245
12.1996 -57.9238 453.596 0.376005 0.581591 -0.721368
12.434 -57.9227 453.736 0.400816 0.606129 -0.686989
12.6643 -57.9159 453.865 0.359559 0.632775 -0.685793
12.8953 -57.9045 454.006 0.381267 0.653674 -0.653717
13.1383 -57.9026 454.191 0.43101 0.670761 -0.603581
13.3835 -57.9068 454.373 0.42503 0.690994 -0.584702
13.623 -57.9035 454.539 0.426951 0.682916 -0.592738
13.8691 -57.9035 454.733 0.459213 0.686501 -0.563774
14.129 -57.9101 454.984 0.467048 0.696039 -0.54534
14.3733 -57.9105 455.165 0.484447 0.685911 -0.542989
14.6298 -57.9154 455.399 0.540218 0.664212 -0.516708
14.9081 -57.9225 455.742 0.578593 0.628572 -0.519738
15.1679 -57.9271 455.992 0.570507 0.604613 -0.555846
15.4211 -57.9288 456.212 0.618985 0.551988 -0.558718
15.6946 -57.9389 456.519 0.667572 0.485063 -0.564855
15.9678 -57.9487 456.823 0.671698 0.453048 -0.586148
16.2428 -57.959 457.133 0.702519 0.436704 -0.561922
16.5302 -57.9744 457.496 0.738416 0.360972 -0.569597
16.8169 -57.9894 457.854 0.733251 0.286149 -0.616816
17.079 -57.9939 458.104 0.730904 0.249381 -0.635286
17.3554 -58.0022 458.415 0.748961 0.198478 -0.63219
17.6365 -58.0187 458.745 0.748619 0.160989 -0.643158
-3.38251 -59.7858 457.981 -0.762534 0.0752871 -0.642552
-3.21602 -59.7304 457.812 -0.753838 -0.0134312 -0.656923
-3.05178 -59.6905 457.62 -0.753998 0.0508849 -0.654903
-2.88037 -59.6555 457.467 -0.741206 0.125935 -0.659358
-2.71566 -59.617 457.278 -0.772768 0.161804 -0.613718
-2.55351 -59.5773 457.077 -0.771313 0.216037 -0.598668
-2.38626 -59.5403 456.903 -0.738232 0.31813 -0.594816
-2.2239 -59.5009 456.705 -0.748055 0.317988 -0.582493
-2.06061 -59.462 456.512 -0.754144 0.303003 -0.582628
-1.89585 -59.4217 456.329 -0.694627 0.373429 -0.614853
-1.72475 -59.3899 456.176 -0.665946 0.374451 -0.645215
-1.55419 -59.3558 456.023 -0.69979 0.334978 -0.630939
-1.38879 -59.3171 455.844 -0.685127 0.366849 -0.629304
-1.21714 -59.2829 455.698 -0.64458 0.404199 -0.648953
-1.04523 -59.249 455.554 -0.655263 0.397079 -0.642619
-0.876002 -59.2154 455.395 -0.663379 0.417454 -0.621016
-0.705428 -59.1774 455.247 -0.630345 0.454639 -0.62926
-0.532637 -59.1459 455.107 -0.604635 0.463167 -0.647992
-0.360236 -59.1125 454.967 -0.597252 0.479782 -0.642728
-0.183039 -59.0816 454.853 -0.598454 0.507386 -0.620009
-0.0117205 -59.0477 454.708 -0.610461 0.521353 -0.596262
0.160822 -59.0145 454.57 -0.603572 0.539504 -0.587057
0.333218 -58.9813 454.432 -0.579313 0.595636 -0.55643
0.50405 -58.9474 454.287 -0.517302 0.65601 -0.54959
0.683243 -58.9177 454.184 -0.474961 0.670831 -0.569559
0.854798 -58.8843 454.043 -0.520985 0.640515 -0.564194
1.02714 -58.8513 453.907 -0.543313 0.602512 -0.584628
1.2079 -58.8225 453.813 -0.443096 0.646939 -0.620592
1.39037 -58.7946 453.728 -0.384 0.686467 -0.617501
1.56948 -58.7651 453.626 -0.406696 0.662558 -0.62898
1.7514 -58.737 453.539 -0.411707 0.634848 -0.653808
1.92941 -58.707 453.432 -0.451908 0.583142 -0.675074
2.10823 -58.6775 453.33 -0.424246 0.558595 -0.712732
2.29267 -58.6507 453.256 -0.37633 0.554058 -0.74256
2.47692 -58.6239 453.181 -0.377836 0.541533 -0.750987
2.66361 -58.5983 453.119 -0.333503 0.56696 -0.753215
2.85111 -58.5731 453.06 -0.353626 0.542835 -0.76176
3.03258 -58.545 452.972 -0.384771 0.519085 -0.763218
3.21883 -58.5192 452.908 -0.309306 0.542904 -0.780759
3.40831 -58.495 452.859 -0.311771 0.536231 -0.784382
3.59241 -58.4684 452.785 -0.298549 0.542645 -0.785115
3.78386 -58.4449 452.746 -0.239316 0.556123 -0.795899
3.97363 -58.4211 452.699 -0.227852 0.561225 -0.795682
4.16582 -58.3981 452.664 -0.214184 0.551699 -0.806073
4.35663 -58.3746 452.622 -0.213163 0.519412 -0.82751
4.54892 -58.3518 452.588 -0.193193 0.498578 -0.845042
4.7442 -58.3304 452.567 -0.18975 0.495145 -0.847836
4.93714 -58.3079 452.536 -0.170791 0.49689 -0.850841
5.13383 -58.2871 452.521 -0.164645 0.487466 -0.857478
5.32595 -58.2643 452.487 -0.18848 0.479067 -0.857304
5.51624 -58.2407 452.443 -0.175488 0.473867 -0.862933
5.70868 -58.2178 452.408 -0.15759 0.446327 -0.880884
5.90263 -58.1958 452.381 -0.128734 0.430856 -0.893191
6.10359 -58.177 452.388 -0.0793229 0.455762 -0.88656
6.30218 -58.1571 452.383 -0.056661 0.466281 -0.88282
6.5009 -58.1373 452.378 -0.0430886 0.466304 -0.883574
6.70604 -58.1204 452.404 0.00259984 0.478446 -0.878113
6.90556 -58.1009 452.403 0.0417572 0.453177 -0.890442
7.10869 -58.0831 452.418 0.0276985 0.388544 -0.921014
7.31168 -58.0651 452.433 -0.00660256 0.362097 -0.932117
7.51412 -58.0469 452.445 0.00633748 0.405166 -0.914221
7.71714 -58.0289 452.459 0.0118514 0.453536 -0.891159
7.91759 -58.0097 452.462 -0.0416736 0.474547 -0.879243
8.11417 -57.9887 452.446 0.0298368 0.46875 -0.882827
8.32285 -57.9733 452.486 0.138222 0.430285 -0.892048
8.53126 -57.9576 452.525 0.141752 0.444859 -0.884311
8.74181 -57.9429 452.573 0.110105 0.478059 -0.871399
8.9489 -57.9266 452.605 0.107102 0.460009 -0.881431
9.15872 -57.9142 452.644 0.138039 0.44739 -0.883622
9.36402 -57.8944 452.672 0.169972 0.441916 -0.880807
9.58129 -57.8814 452.751 0.215984 0.47697 -0.851968
9.79436 -57.8687 452.807 0.210926 0.516817 -0.829705
10.008 -57.8547 452.868 0.200666 0.489172 -0.84879
10.2197 -57.8367 452.926 0.210778 0.491901 -0.844752
10.4365 -57.8284 452.992 0.198219 0.553625 -0.808832
10.6501 -57.8147 453.05 0.205136 0.574781 -0.792178
10.8707 -57.804 453.141 0.263235 0.581727 -0.769611
11.0915 -57.7934 453.231 0.272749 0.615306 -0.739599
11.3096 -57.7803 453.311 0.243074 0.648274 -0.721565
11.5302 -57.7706 453.397 0.279158 0.649663 -0.707113
11.761 -57.7641 453.531 0.294426 0.666226 -0.685168
11.9842 -57.7542 453.629 0.315439 0.683451 -0.658326
12.2167 -57.7483 453.769 0.36138 0.690161 -0.626963
12.4521 -57.7436 453.922 0.375955 0.688162 -0.620557
12.6909 -57.7402 454.088 0.368601 0.682772 -0.630837
12.9245 -57.7376 454.224 0.398549 0.701607 -0.590682
13.1713 -57.7343 454.431 0.435814 0.697572 -0.568734
13.4138 -57.7333 454.609 0.4193 0.685833 -0.594828
13.6511 -57.7276 454.768 0.455018 0.672692 -0.583475
13.9098 -57.7325 455.017 0.48319 0.672078 -0.561105
14.1483 -57.7284 455.177 0.491972 0.651228 -0.577811
14.4082 -57.7333 455.43 0.531788 0.62206 -0.574668
14.6704 -57.739 455.692 0.55607 0.617192 -0.556651
14.9146 -57.737 455.875 0.598333 0.542085 -0.590036
15.1796 -57.7436 456.147 0.602398 0.491977 -0.62855
15.4373 -57.747 456.385 0.615934 0.505981 -0.603828
15.7071 -57.7554 456.676 0.659442 0.467403 -0.588788
15.9761 -57.7633 456.962 0.684537 0.421765 -0.594579
16.2568 -57.7759 457.297 0.696822 0.382185 -0.606938
16.5132 -57.7782 457.525 0.728325 0.291726 -0.620031
16.7947 -57.7907 457.861 0.731688 0.222329 -0.644362
17.0666 -57.7992 458.154 0.722722 0.193358 -0.66354
17.3453 -57.8108 458.476 0.740256 0.171069 -0.650197
17.6166 -57.8158 458.763 0.713445 0.155274 -0.683291
-3.40826 -59.5685 457.981 -0.806624 0.21648 -0.549995
-3.23857 -59.5314 457.818 -0.728744 0.119405 -0.674295
-3.07087 -59.4952 457.644 -0.714608 0.0559315 -0.697285
-2.90047 -59.46 457.484 -0.703756 -0.00320189 -0.710435
-2.73198 -59.4233 457.316 -0.736804 0.00992768 -0.676033
-2.56282 -59.3873 457.152 -0.720121 0.101993 -0.686311
-2.38986 -59.3533 457.008 -0.748535 0.130388 -0.65015
-2.2307 -59.3122 456.792 -0.769402 0.168204 -0.616221
-2.06223 -59.2761 456.626 -0.735581 0.256417 -0.627033
-1.89534 -59.2392 456.453 -0.711077 0.32996 -0.620883
-1.7294 -59.2043 456.273 -0.686204 0.356222 -0.634216
-1.56161 -59.1657 456.107 -0.681573 0.337986 -0.649018
-1.38815 -59.1325 455.969 -0.673019 0.3567 -0.647927
-1.22001 -59.096 455.805 -0.650752 0.379119 -0.657868
-1.04757 -59.0633 455.662 -0.638089 0.376872 -0.671424
-0.873475 -59.0302 455.53 -0.651015 0.385752 -0.653739
-0.70448 -58.993 455.373 -0.640642 0.417521 -0.644402
-0.532803 -58.961 455.227 -0.596043 0.441354 -0.670775
-0.354276 -58.9312 455.118 -0.57617 0.437898 -0.690126
-0.181928 -58.8973 454.978 -0.594319 0.428668 -0.680462
-0.00700817 -58.8653 454.851 -0.618127 0.41995 -0.664501
0.163518 -58.8311 454.703 -0.563639 0.477521 -0.674006
0.349013 -58.8045 454.631 -0.554382 0.528826 -0.642653
0.520313 -58.7707 454.488 -0.54753 0.577075 -0.605967
0.696876 -58.7397 454.371 -0.518163 0.599425 -0.61008
0.873673 -58.7089 454.256 -0.578487 0.580289 -0.573253
1.0402 -58.673 454.09 -0.521756 0.636718 -0.567769
1.21928 -58.6433 453.987 -0.393918 0.697728 -0.598334
1.40543 -58.6173 453.92 -0.415446 0.673333 -0.611577
1.58234 -58.5866 453.807 -0.45008 0.641814 -0.620889
1.76234 -58.5576 453.71 -0.46262 0.637073 -0.616539
1.93718 -58.526 453.587 -0.478896 0.622223 -0.619271
2.11689 -58.4969 453.489 -0.420279 0.660041 -0.622665
2.29752 -58.4683 453.396 -0.365507 0.688983 -0.625865
2.48325 -58.4422 453.328 -0.337072 0.676151 -0.655135
2.66882 -58.416 453.26 -0.34836 0.640008 -0.684862
2.85017 -58.3878 453.171 -0.364965 0.61121 -0.702298
3.03831 -58.3629 453.115 -0.360609 0.620471 -0.696403
3.2214 -58.3356 453.035 -0.308192 0.633437 -0.709771
3.41217 -58.312 452.992 -0.300058 0.612495 -0.731311
3.59934 -58.2868 452.933 -0.285525 0.629971 -0.722227
3.79096 -58.2635 452.894 -0.230696 0.648541 -0.725378
3.98318 -58.2406 452.859 -0.240789 0.608518 -0.756126
4.17223 -58.2162 452.808 -0.254533 0.579519 -0.77419
4.36083 -58.1919 452.757 -0.240132 0.58558 -0.77423
4.55275 -58.1686 452.719 -0.198404 0.601081 -0.774169
4.74509 -58.1458 452.684 -0.190985 0.596467 -0.779585
4.93734 -58.1229 452.65 -0.184613 0.584986 -0.789753
5.13014 -58.1 452.616 -0.174229 0.570417 -0.802663
5.32451 -58.0785 452.593 -0.197473 0.555448 -0.807764
5.51896 -58.0566 452.567 -0.210281 0.575213 -0.790514
5.71176 -58.0339 452.533 -0.181736 0.600335 -0.778826
5.90711 -58.0127 452.516 -0.11462 0.613003 -0.781722
6.10439 -57.9921 452.503 -0.0809173 0.611355 -0.787209
6.30238 -57.9719 452.495 -0.0684637 0.590836 -0.803881
6.50375 -57.9532 452.502 -0.0419477 0.584266 -0.810477
6.70031 -57.9324 452.487 -0.0357712 0.556275 -0.830228
6.90161 -57.9136 452.494 -0.0382166 0.526251 -0.84947
7.09926 -57.8932 452.484 -0.0152202 0.525111 -0.850898
7.30157 -57.8749 452.495 0.0218136 0.50869 -0.860673
7.50676 -57.8579 452.52 0.045569 0.516282 -0.855205
7.71406 -57.8418 452.554 0.0277746 0.524763 -0.850795
7.91818 -57.8243 452.574 -0.054635 0.527267 -0.847942
8.1163 -57.804 452.565 -0.0250097 0.579206 -0.814798
8.31917 -57.7859 452.578 0.122462 0.593406 -0.795533
8.53714 -57.7744 452.66 0.143889 0.598239 -0.788293
8.74359 -57.7578 452.689 0.0677033 0.60087 -0.796475
8.94566 -57.7366 452.703 0.0808042 0.541942 -0.836522
9.15499 -57.7239 452.74 0.118746 0.537911 -0.834597
9.36692 -57.7096 452.793 0.180493 0.584251 -0.791248
9.58406 -57.6976 452.87 0.22903 0.58988 -0.77433
9.80231 -57.686 452.951 0.162409 0.587562 -0.792713
10.0067 -57.6683 452.968 0.177253 0.605243 -0.776056
10.23 -57.6589 453.072 0.232128 0.648296 -0.725141
10.451 -57.6484 453.164 0.185383 0.68477 -0.704786
10.6642 -57.6344 453.221 0.187023 0.697662 -0.691585
10.8825 -57.6226 453.3 0.265413 0.688776 -0.674644
11.1123 -57.6158 453.431 0.282686 0.672815 -0.683673
11.3377 -57.6094 453.536 0.234425 0.704437 -0.669935
11.5562 -57.5951 453.62 0.274223 0.721651 -0.635626
11.7857 -57.5879 453.747 0.303123 0.713094 -0.63215
12.0121 -57.5793 453.86 0.331815 0.708905 -0.622376
12.2516 -57.5763 454.031 0.352077 0.715496 -0.603413
12.4773 -57.5672 454.139 0.347231 0.722497 -0.597854
12.7099 -57.5562 454.288 0.395486 0.703529 -0.590455
12.9597 -57.5621 454.492 0.422634 0.686022 -0.592245
13.1954 -57.5572 454.642 0.431009 0.665228 -0.609674
13.434 -57.5551 454.801 0.442549 0.647736 -0.620152
13.6805 -57.5496 455.008 0.494408 0.626563 -0.602478
13.9295 -57.553 455.209 0.506983 0.5916 -0.626879
14.1747 -57.5516 455.398 0.519038 0.580019 -0.627835
14.4272 -57.5532 455.618 0.580611 0.536834 -0.612127
14.6817 -57.5555 455.846 0.568683 0.490128 -0.660586
14.9281 -57.5543 456.037 0.58262 0.503329 -0.638133
15.1948 -57.5614 456.317 0.619661 0.481918 -0.619496
15.4532 -57.565 456.559 0.628793 0.450131 -0.634036
15.7145 -57.5697 456.812 0.660859 0.417076 -0.62395
15.983 -57.5772 457.095 0.686162 0.366818 -0.628193
16.2458 -57.5821 457.352 0.681071 0.314163 -0.661395
16.5102 -57.5877 457.615 0.707826 0.27046 -0.652559
16.7912 -57.6 457.95 0.718573 0.238977 -0.653103
17.0471 -57.6017 458.174 0.714089 0.20367 -0.669773
17.3224 -57.6107 458.478 0.733101 0.183291 -0.654956
17.5983 -57.6208 458.787 0.729643 0.26927 -0.628582
-4.31154 -59.6626 459.728 -0.848273 0.394154 -0.35366
-4.15496 -59.6092 459.492 -0.813355 0.462328 -0.353138
-4.01027 -59.594 459.179 -0.837829 0.392909 -0.379031
-3.87157 -59.5476 458.837 -0.791149 0.367079 -0.489219
-3.703 -59.4958 458.666 -0.712267 0.475701 -0.516125
-3.55313 -59.4204 458.413 -0.892321 0.157363 -0.423083
-3.40848 -59.3827 458.106 -0.860322 0.172447 -0.479696
-3.2485 -59.3417 457.89 -0.759637 0.255834 -0.597914
-3.08841 -59.3007 457.675 -0.749771 0.162146 -0.641523
-2.92356 -59.262 457.487 -0.69979 0.111799 -0.705545
-2.74864 -59.2293 457.352 -0.690314 0.0692919 -0.720184
-2.58079 -59.1926 457.181 -0.691306 0.0201979 -0.72228
-2.41208 -59.1565 457.015 -0.712526 -0.0100888 -0.701573
