1.37024 -20.0661 509.281 -0.0646064 -0.595154 0.801011
1.15442 -20.1352 509.224 -0.0166192 -0.605329 0.795802
0.940803 -20.1963 509.163 -0.0821646 -0.575203 0.813874
0.726447 -20.2604 509.104 -0.093958 -0.56242 0.821496
0.516059 -20.3098 509.039 -0.0825086 -0.570168 0.817374
0.311717 -20.3366 508.967 -0.189762 -0.537642 0.821542
0.104102 -20.3759 508.898 -0.21789 -0.503644 0.835982
-0.102128 -20.4101 508.828 -0.16447 -0.521747 0.837096
-0.306285 -20.4367 508.755 -0.218639 -0.502536 0.836454
-0.514876 -20.4806 508.689 -0.216831 -0.493745 0.84214
-0.7167 -20.4978 508.613 -0.192463 -0.502689 0.84277
-0.921794 -20.5288 508.542 -0.257383 -0.488632 0.833662
-1.12653 -20.5582 508.47 -0.293416 -0.54097 0.788199
-1.33176 -20.5897 508.399 -0.226325 -0.603689 0.764419
-1.53501 -20.6137 508.325 -0.263415 -0.579026 0.771584
-1.73185 -20.6131 508.243 -0.29672 -0.570965 0.765478
-1.93076 -20.6207 508.163 -0.30642 -0.555392 0.773076
-2.12516 -20.6108 508.077 -0.346561 -0.547092 0.761962
-2.32029 -20.6041 507.992 -0.355584 -0.560568 0.74788
-2.51465 -20.5937 507.906 -0.321234 -0.560197 0.763537
-2.71767 -20.6177 507.832 -0.329574 -0.561282 0.759173
-2.90969 -20.5991 507.743 -0.426407 -0.546844 0.720513
-3.09354 -20.5481 507.642 -0.444232 -0.511816 0.735325
-3.28353 -20.521 507.55 -0.419843 -0.485613 0.766754
-3.47554 -20.5022 507.461 -0.412764 -0.48622 0.770205
-3.66753 -20.4832 507.371 -0.504929 -0.474831 0.72082
-3.84988 -20.4262 507.268 -0.539137 -0.501106 0.676922
-4.04185 -20.4067 507.179 -0.438996 -0.568584 0.695697
-4.23339 -20.3868 507.089 -0.388748 -0.593382 0.704821
-4.42547 -20.3672 506.999 -0.491874 -0.549949 0.674993
-4.597 -20.2644 506.879 -0.568786 -0.51739 0.639366
-4.77253 -20.1856 506.768 -0.545322 -0.503266 0.670334
-4.95487 -20.1251 506.663 -0.558062 -0.484856 0.673411
-5.13872 -20.0732 506.562 -0.551161 -0.47389 0.686768
-5.32883 -20.0462 506.469 -0.606275 -0.450072 0.655641
-5.48441 -19.8815 506.326 -0.609381 -0.476361 0.633825
-5.67495 -19.8558 506.235 -0.555935 -0.537735 0.633859
-5.85393 -19.7839 506.126 -0.669905 -0.459285 0.583339
-6.02222 -19.6692 506.001 -0.705024 -0.429767 0.564129
-6.19112 -19.5562 505.877 -0.638851 -0.508247 0.577541
-6.36849 -19.4772 505.765 -0.62551 -0.48325 0.612541
-6.54137 -19.3797 505.647 -0.635212 -0.430262 0.64139
-6.71195 -19.2728 505.525 -0.690079 -0.38911 0.610232
-6.88582 -19.1788 505.408 -0.738935 -0.398797 0.543081
-7.05128 -19.0505 505.278 -0.732894 -0.422 0.533649
-7.21969 -18.9338 505.152 -0.746851 -0.395211 0.53481
-7.37683 -18.7709 505.009 -0.714135 -0.381517 0.586903
-7.55484 -18.6925 504.898 -0.74654 -0.367383 0.554714
-7.7037 -18.4949 504.742 -0.786602 -0.354261 0.505723
-7.86854 -18.3638 504.611 -0.799485 -0.348278 0.489413
-8.02177 -18.182 504.461 -0.83671 -0.337707 0.431127
-8.17584 -18.0032 504.311 -0.815057 -0.394607 0.424226
-8.34088 -17.8706 504.18 -0.801353 -0.416923 0.428961
-8.48951 -17.6683 504.022 -0.84755 -0.34434 0.403844
-8.63217 -17.4415 503.855 -0.859811 -0.335567 0.384864
-8.79379 -17.2924 503.717 -0.86933 -0.362718 0.335708
-8.94165 -17.0858 503.557 -0.885654 -0.369302 0.281484
-9.08793 -16.872 503.395 -0.861532 -0.399883 0.312818
-9.23786 -16.6726 503.237 -0.867892 -0.39662 0.299093
-9.38008 -16.4405 503.068 -0.903796 -0.354913 0.239141
-9.51633 -16.1827 502.889 -0.908193 -0.317762 0.272419
-9.66099 -15.9591 502.723 -0.912805 -0.307912 0.268287
-9.7871 -15.6572 502.527 -0.932925 -0.294328 0.207418
-9.92132 -15.3883 502.344 -0.926286 -0.310145 0.214021
-10.0571 -15.1249 502.162 -0.931936 -0.290911 0.216486
-10.1827 -14.8177 501.964 -0.962788 -0.229215 0.143175
-10.2831 -14.4037 501.726 -0.960023 -0.244121 0.136968
-10.4136 -14.1148 501.535 -0.957463 -0.241153 0.158462
-10.5226 -13.734 501.309 -0.97463 -0.188719 0.120336
-10.6184 -13.296 501.062 -0.990351 -0.122654 0.064501
-10.6891 -12.7501 500.774 -0.995407 -0.0955259 -0.00634384
-10.7245 -12.0519 500.429 -0.991901 -0.120082 -0.0413865
-10.7998 -11.5209 500.146 -0.981644 -0.190722 0.0010306
5.95091 -17.4221 510.2 0.336567 -0.493937 0.801716
5.69272 -17.638 510.194 0.333971 -0.476478 0.813285
5.42995 -17.8714 510.194 0.293077 -0.484272 0.82437
5.19235 -18.0137 510.162 0.247876 -0.498361 0.830779
4.95153 -18.1682 510.134 0.208725 -0.483642 0.850014
4.71065 -18.3235 510.107 0.143924 -0.494099 0.85741
4.48078 -18.439 510.065 0.17414 -0.527307 0.831639
4.2399 -18.5954 510.039 0.216161 -0.53222 0.818545
4.00376 -18.7348 510.006 0.185954 -0.534965 0.824157
3.77136 -18.8611 509.968 0.116273 -0.537684 0.835091
3.54495 -18.9657 509.923 0.109908 -0.548895 0.828634
3.31845 -19.0709 509.878 0.156679 -0.539523 0.827264
3.08389 -19.2059 509.844 0.104303 -0.535003 0.838387
2.85891 -19.307 509.797 0.0628325 -0.560201 0.82597
2.63645 -19.3986 509.747 0.0676702 -0.555904 0.828487
2.41177 -19.4987 509.701 0.0588064 -0.545718 0.835903
2.1873 -19.5985 509.654 0.027997 -0.560866 0.827433
1.97274 -19.6631 509.594 -0.0470549 -0.556192 0.829721
1.75486 -19.7374 509.539 -0.0362225 -0.553157 0.832289
1.53746 -19.8117 509.483 0.00463631 -0.582607 0.812741
1.3151 -19.905 509.434 -0.035315 -0.608386 0.792856
1.10441 -19.9547 509.369 -0.0739056 -0.596652 0.79909
0.894443 -20.002 509.304 -0.101816 -0.574096 0.812433
0.687113 -20.0395 509.235 -0.0739849 -0.579496 0.81161
0.46762 -20.1231 509.183 -0.132387 -0.581957 0.802371
0.265842 -20.14 509.106 -0.21496 -0.604533 0.767028
0.0669642 -20.146 509.026 -0.138859 -0.638007 0.757407
-0.148286 -20.2144 508.968 -0.153753 -0.624307 0.765898
-0.348221 -20.2247 508.889 -0.199762 -0.593241 0.779846
-0.552392 -20.2513 508.816 -0.175564 -0.572805 0.80067
-0.762783 -20.3017 508.752 -0.185722 -0.578996 0.793896
-0.967063 -20.3291 508.68 -0.156596 -0.570516 0.806219
-1.18235 -20.3988 508.623 -0.203871 -0.56224 0.801451
-1.37516 -20.3824 508.534 -0.268162 -0.578901 0.77004
-1.57395 -20.3891 508.454 -0.280739 -0.554566 0.783353
-1.77368 -20.3995 508.376 -0.328569 -0.525852 0.784552
-1.96583 -20.3818 508.287 -0.323162 -0.522989 0.788701
-2.17013 -20.4078 508.214 -0.334261 -0.521331 0.785164
-2.363 -20.3932 508.126 -0.367149 -0.521152 0.770456
-2.55815 -20.3855 508.041 -0.327651 -0.52701 0.784159
-2.75353 -20.38 507.956 -0.351874 -0.501362 0.790456
-2.94568 -20.3612 507.867 -0.479294 -0.449074 0.754062
-3.12627 -20.2974 507.761 -0.486343 -0.455252 0.745799
-3.31846 -20.2783 507.672 -0.419811 -0.486658 0.766109
-3.50887 -20.2539 507.581 -0.411232 -0.493215 0.766568
-3.7011 -20.2349 507.491 -0.464017 -0.480572 0.744136
-3.88707 -20.1919 507.393 -0.478726 -0.498744 0.722548
-4.07449 -20.1545 507.297 -0.42154 -0.531429 0.73477
-4.2658 -20.1323 507.207 -0.439353 -0.52781 0.726901
-4.44861 -20.0764 507.104 -0.52089 -0.46146 0.718142
-4.63924 -20.0519 507.012 -0.593128 -0.433543 0.678409
-4.81445 -19.9657 506.898 -0.564215 -0.503019 0.654701
-5.00325 -19.9334 506.804 -0.57094 -0.513821 0.640325
-5.16931 -19.8106 506.676 -0.564128 -0.497023 0.659339
-5.35223 -19.7546 506.573 -0.575132 -0.441027 0.688998
-5.5438 -19.733 506.483 -0.555217 -0.458943 0.693617
-5.7326 -19.7003 506.389 -0.613819 -0.442855 0.653533
-5.88209 -19.5101 506.236 -0.683778 -0.387414 0.618352
-6.06683 -19.4608 506.136 -0.648708 -0.455364 0.609771
-6.24114 -19.3694 506.019 -0.669664 -0.491164 0.557053
-6.4096 -19.2542 505.895 -0.67954 -0.474865 0.559221
-6.57656 -19.1327 505.767 -0.66382 -0.430297 0.611709
-6.75741 -19.0668 505.66 -0.664026 -0.43228 0.610085
-6.9236 -18.9415 505.532 -0.71933 -0.405682 0.563902
-7.08778 -18.8076 505.4 -0.746099 -0.358877 0.560842
-7.24592 -18.6488 505.258 -0.766532 -0.362972 0.529792
-7.40967 -18.5123 505.125 -0.719982 -0.414918 0.5563
-7.58146 -18.4082 505.004 -0.744013 -0.374427 0.553398
-7.74191 -18.2574 504.866 -0.786915 -0.356003 0.504011
-7.90534 -18.1184 504.732 -0.796229 -0.385333 0.46641
-8.05941 -17.9398 504.583 -0.808721 -0.400935 0.430373
-8.22921 -17.8236 504.456 -0.805395 -0.420845 0.417407
-8.37333 -17.6057 504.293 -0.83388 -0.374954 0.405036
-8.52951 -17.4379 504.149 -0.849953 -0.361322 0.383439
-8.68631 -17.2673 504.003 -0.840391 -0.403116 0.362272
-8.83852 -17.079 503.85 -0.856114 -0.409778 0.314883
-8.97918 -16.8421 503.679 -0.880819 -0.376709 0.286789
-9.127 -16.6343 503.519 -0.859344 -0.376666 0.345906
-9.28312 -16.4613 503.372 -0.868133 -0.332389 0.368595
-9.42647 -16.2324 503.204 -0.916694 -0.280762 0.284332
-9.54719 -15.9093 503 -0.910071 -0.305851 0.279689
-9.69848 -15.7129 502.844 -0.906953 -0.30429 0.291279
-9.83312 -15.4462 502.662 -0.929588 -0.288321 0.229646
-9.96667 -15.174 502.477 -0.931208 -0.291906 0.21827
-10.0901 -14.8583 502.276 -0.935863 -0.24369 0.254509
-10.2205 -14.5709 502.086 -0.958109 -0.206052 0.198922
-10.3338 -14.2104 501.868 -0.962169 -0.236429 0.135394
-10.4535 -13.8754 501.66 -0.963719 -0.227247 0.140013
-10.5546 -13.4606 501.421 -0.97928 -0.14778 0.138463
-10.643 -12.9907 501.162 -0.989182 -0.0970091 0.110038
-10.7081 -12.4196 500.865 -0.996424 -0.0688933 0.048926
-10.7694 -11.8304 500.561 -0.996865 -0.0674596 0.0413467
-10.8232 -11.2073 500.244 -0.99435 -0.0906275 0.0552662
6.39217 -16.9038 510.393 0.408066 -0.53249 0.741577
6.14403 -17.0819 510.373 0.34123 -0.539094 0.770026
5.88829 -17.2883 510.364 0.35259 -0.540551 0.763862
5.64476 -17.4509 510.339 0.349827 -0.503716 0.789868
5.39884 -17.6228 510.317 0.263785 -0.446488 0.855024
5.1512 -17.8016 510.298 0.217526 -0.499929 0.838304
4.91595 -17.9357 510.263 0.252902 -0.5512 0.795122
4.67312 -18.0981 510.238 0.234409 -0.550116 0.801514
4.43338 -18.2497 510.209 0.208138 -0.546384 0.81126
4.1988 -18.3829 510.174 0.207984 -0.530442 0.821811
3.9624 -18.5232 510.141 0.164381 -0.529024 0.832534
3.7336 -18.6362 510.099 0.129598 -0.538431 0.832644
3.50068 -18.7646 510.062 0.116532 -0.556655 0.82253
3.27383 -18.8711 510.017 0.143288 -0.551286 0.82192
3.04059 -19.0016 509.981 0.127625 -0.537091 0.833814
2.81481 -19.1051 509.936 0.0524486 -0.550103 0.833448
2.59451 -19.1894 509.883 0.051452 -0.555325 0.830041
2.36973 -19.2889 509.836 0.0690285 -0.541116 0.83811
2.14439 -19.3918 509.791 -0.00935718 -0.529088 0.848515
1.93069 -19.4515 509.729 -0.0527705 -0.54952 0.833813
1.71352 -19.5232 509.673 0.0177931 -0.566437 0.823913
1.4862 -19.636 509.631 0.0253731 -0.572403 0.81958
1.27319 -19.6941 509.569 -0.0697789 -0.584156 0.808636
1.06608 -19.7301 509.499 -0.121688 -0.567383 0.814413
0.852538 -19.7907 509.438 -0.095962 -0.56232 0.821333
0.635018 -19.8665 509.383 -0.0786726 -0.577748 0.812415
0.428598 -19.9006 509.313 -0.119803 -0.553061 0.824482
0.213672 -19.9672 509.255 -0.185945 -0.548561 0.815172
0.00379741 -20.0148 509.189 -0.161645 -0.632539 0.757473
-0.195346 -20.0219 509.109 -0.190002 -0.649703 0.736061
-0.395403 -20.0325 509.031 -0.218138 -0.616574 0.756473
-0.601651 -20.0668 508.96 -0.154127 -0.606923 0.779673
-0.807897 -20.1014 508.89 -0.190081 -0.593246 0.782258
-1.00623 -20.1058 508.81 -0.160422 -0.59677 0.786213
-1.21444 -20.1481 508.742 -0.185577 -0.553107 0.812178
-1.42196 -20.1881 508.674 -0.319497 -0.507216 0.800409
-1.61478 -20.1716 508.586 -0.327168 -0.515208 0.792163
-1.8127 -20.1748 508.505 -0.333438 -0.522617 0.78466
-2.00966 -20.1743 508.422 -0.320962 -0.538219 0.779297
-2.20584 -20.1709 508.338 -0.32998 -0.529321 0.781621
-2.40013 -20.1603 508.252 -0.362165 -0.522598 0.771834
-2.59676 -20.1587 508.169 -0.359572 -0.530114 0.767911
-2.78871 -20.1402 508.08 -0.404963 -0.505327 0.762003
-2.9774 -20.1066 507.985 -0.466644 -0.485265 0.739433
-3.1681 -20.081 507.893 -0.449469 -0.519358 0.726804
-3.36004 -20.0622 507.804 -0.401782 -0.548421 0.733352
-3.55187 -20.0433 507.715 -0.414857 -0.525144 0.743046
-3.74195 -20.0149 507.622 -0.434916 -0.506142 0.744761
-3.93444 -19.996 507.532 -0.444501 -0.518188 0.730685
-4.12534 -19.9737 507.442 -0.419512 -0.554053 0.719051
-4.31749 -19.9544 507.352 -0.504911 -0.558953 0.657751
-4.48973 -19.8567 507.234 -0.53425 -0.515478 0.66997
-4.67533 -19.8116 507.135 -0.517123 -0.479244 0.709161
-4.86127 -19.7678 507.037 -0.550501 -0.491366 0.674914
-5.03854 -19.6895 506.926 -0.593762 -0.470346 0.652856
-5.22036 -19.6291 506.821 -0.62592 -0.432311 0.649101
-5.3928 -19.5311 506.703 -0.558563 -0.450673 0.696349
-5.57155 -19.458 506.593 -0.559337 -0.451031 0.695495
-5.73818 -19.3357 506.466 -0.650603 -0.371635 0.662271
-5.92671 -19.3026 506.371 -0.622919 -0.403238 0.670351
-6.10843 -19.2402 506.266 -0.600923 -0.468162 0.647855
-6.28055 -19.1397 506.146 -0.681629 -0.428909 0.592805
-6.45002 -19.0283 506.023 -0.727112 -0.433291 0.53251
-6.6119 -18.8856 505.888 -0.662639 -0.462043 0.589429
-6.7945 -18.8268 505.784 -0.67283 -0.430678 0.601512
-6.9533 -18.6711 505.644 -0.753229 -0.384552 0.533634
-7.11857 -18.5413 505.513 -0.739973 -0.411162 0.53234
-7.29304 -18.4473 505.395 -0.742989 -0.453603 0.49215
-7.45867 -18.3185 505.265 -0.752586 -0.460796 0.470406
-7.61518 -18.1525 505.122 -0.749803 -0.431711 0.50142
-7.78535 -18.041 504.998 -0.762954 -0.421619 0.490039
-7.94413 -17.8842 504.858 -0.780511 -0.440813 0.443268
-8.11364 -17.7679 504.732 -0.795182 -0.427202 0.430329
-8.25942 -17.5561 504.571 -0.824878 -0.381981 0.416733
-8.42088 -17.4043 504.431 -0.83639 -0.377923 0.397021
-8.57195 -17.2146 504.279 -0.827097 -0.408279 0.386289
-8.72839 -17.0431 504.132 -0.825943 -0.409952 0.386985
-8.8859 -16.8763 503.987 -0.862417 -0.365969 0.34972
-9.03248 -16.6636 503.826 -0.890293 -0.344187 0.298185
-9.17107 -16.4159 503.65 -0.881587 -0.352846 0.313534
-9.31043 -16.1727 503.477 -0.877592 -0.34997 0.327649
-9.4572 -15.9587 503.315 -0.910024 -0.311783 0.273218
-9.59978 -15.7263 503.146 -0.913447 -0.333378 0.233398
-9.73579 -15.4657 502.966 -0.904267 -0.360414 0.228916
-9.87563 -15.2202 502.791 -0.927399 -0.295601 0.229241
-9.99997 -14.9088 502.592 -0.945937 -0.253477 0.20237
-10.1189 -14.5737 502.384 -0.941005 -0.245002 0.233417
-10.2541 -14.3059 502.201 -0.942728 -0.209487 0.259574
-10.3722 -13.9717 501.995 -0.960634 -0.183462 0.208625
-10.4801 -13.5797 501.764 -0.973073 -0.153314 0.172117
-10.5698 -13.1157 501.507 -0.984283 -0.127873 0.121806
-10.6549 -12.6307 501.242 -0.989805 -0.10847 0.0923024
-10.7389 -12.1393 500.975 -0.991356 -0.0868323 0.0983512
-10.7618 -11.3855 500.61 -0.991647 -0.0834101 0.098379
-10.8553 -10.9307 500.356 -0.995085 -0.0917152 0.0373387
6.33855 -16.7371 510.546 0.355448 -0.500235 0.78957
6.10042 -16.878 510.513 0.278835 -0.452679 0.846955
5.84169 -17.0961 510.507 0.234777 -0.448052 0.862629
5.61569 -17.1947 510.459 0.199899 -0.444156 0.873365
5.35982 -17.4028 510.45 0.327917 -0.46756 0.820888
5.0964 -17.6394 510.452 0.318706 -0.535712 0.781946
4.85531 -17.7949 510.424 0.27024 -0.586244 0.763733
4.6174 -17.9392 510.393 0.236606 -0.573374 0.784385
4.38908 -18.0488 510.349 0.191856 -0.552693 0.811001
4.15298 -18.1876 510.315 0.196204 -0.536618 0.820698
3.91707 -18.326 510.282 0.175456 -0.542813 0.821322
3.68371 -18.4557 510.245 0.157427 -0.550681 0.819736
3.45208 -18.5794 510.207 0.119083 -0.559022 0.820557
3.2303 -18.667 510.155 0.12308 -0.55652 0.821667
2.99782 -18.7942 510.118 0.129524 -0.543882 0.829105
2.77131 -18.9007 510.074 0.05608 -0.544772 0.836707
2.54826 -18.9942 510.024 0.0316485 -0.546667 0.836752
2.3281 -19.0769 509.971 0.0395283 -0.546671 0.836414
2.10821 -19.1597 509.918 0.0217085 -0.549119 0.835462
1.88302 -19.2623 509.872 -0.014994 -0.553182 0.832925
1.66578 -19.3355 509.816 0.0260849 -0.563857 0.82546
1.44514 -19.4218 509.764 0.0148443 -0.556881 0.83046
1.22639 -19.5013 509.71 -0.111633 -0.556664 0.823203
1.01962 -19.536 509.64 -0.120171 -0.580317 0.805476
0.806573 -19.5945 509.579 -0.0641081 -0.580614 0.811651
0.595989 -19.644 509.514 -0.126718 -0.55707 0.820741
0.389684 -19.6775 509.443 -0.122867 -0.572367 0.81074
0.177472 -19.7336 509.381 -0.0608203 -0.576095 0.815117
-0.040736 -19.8127 509.327 -0.175256 -0.544755 0.820078
-0.242135 -19.8282 509.25 -0.268655 -0.554814 0.787405
-0.444594 -19.8478 509.175 -0.233893 -0.598645 0.766106
-0.64408 -19.8562 509.095 -0.182496 -0.588856 0.787365
-0.854026 -19.9047 509.03 -0.194942 -0.561867 0.80393
-1.06064 -19.9407 508.961 -0.235949 -0.557879 0.795675
-1.25824 -19.9422 508.879 -0.25144 -0.544307 0.800317
-1.45264 -19.9315 508.792 -0.301752 -0.533165 0.790368
-1.65311 -19.9442 508.714 -0.306551 -0.555659 0.772832
-1.85417 -19.9593 508.637 -0.300062 -0.573413 0.762338
-2.05084 -19.9575 508.554 -0.322984 -0.57497 0.751726
-2.24756 -19.956 508.471 -0.321437 -0.588468 0.741878
-2.44626 -19.9623 508.391 -0.337516 -0.585394 0.737154
-2.63861 -19.9438 508.302 -0.380574 -0.564012 0.732839
-2.82958 -19.9198 508.21 -0.41278 -0.558523 0.719489
-3.02173 -19.901 508.121 -0.410108 -0.58001 0.703847
-3.21387 -19.8821 508.032 -0.405361 -0.593697 0.69513
-3.40312 -19.8505 507.938 -0.421429 -0.593589 0.685602
-3.58906 -19.8086 507.84 -0.427051 -0.579123 0.694437
-3.77997 -19.7836 507.748 -0.405733 -0.574102 0.711187
-3.97264 -19.7648 507.659 -0.392758 -0.570001 0.721692
-4.16499 -19.7482 507.571 -0.401573 -0.528896 0.747669
-4.35725 -19.7292 507.481 -0.557509 -0.466207 0.686902
-4.526 -19.6174 507.358 -0.582256 -0.486204 0.651601
-4.71668 -19.5922 507.266 -0.490482 -0.518839 0.700167
-4.89886 -19.5332 507.162 -0.564307 -0.487773 0.666059
-5.0767 -19.4568 507.052 -0.628168 -0.469836 0.620209
-5.24249 -19.3322 506.923 -0.622665 -0.486042 0.61323
-5.42715 -19.2826 506.823 -0.552973 -0.536244 0.637701
-5.61741 -19.2551 506.73 -0.628994 -0.518597 0.579158
-5.7848 -19.1353 506.603 -0.625327 -0.517302 0.584264
-5.96611 -19.0726 506.498 -0.549519 -0.529108 0.646586
-6.14199 -18.9872 506.384 -0.619439 -0.491453 0.612183
-6.31914 -18.9065 506.272 -0.660065 -0.472189 0.584253
-6.49334 -18.814 506.156 -0.722848 -0.45291 0.521885
-6.65695 -18.678 506.023 -0.692113 -0.48918 0.530737
-6.83058 -18.5824 505.905 -0.692638 -0.489919 0.52937
-6.99726 -18.4582 505.777 -0.738363 -0.460343 0.492853
-7.1697 -18.3583 505.658 -0.699014 -0.484507 0.525958
-7.33749 -18.2377 505.531 -0.731418 -0.446107 0.515768
-7.49701 -18.0825 505.391 -0.777029 -0.411566 0.476277
-7.66116 -17.9461 505.257 -0.754447 -0.459229 0.468955
-7.82782 -17.8204 505.128 -0.737931 -0.464786 0.489317
-7.99701 -17.7044 505.003 -0.7833 -0.404976 0.471631
-8.14301 -17.4927 504.842 -0.814132 -0.376425 0.442145
-8.30813 -17.3589 504.71 -0.822686 -0.388985 0.414583
-8.45889 -17.1648 504.555 -0.820026 -0.410452 0.398856
-8.62096 -17.0183 504.418 -0.825757 -0.396399 0.40124
-8.77264 -16.8276 504.265 -0.836845 -0.369174 0.404228
-8.92139 -16.6241 504.107 -0.857773 -0.333079 0.391515
-9.06669 -16.4056 503.943 -0.885396 -0.301401 0.353881
-9.21061 -16.1807 503.776 -0.882727 -0.321641 0.34255
-9.36787 -16.0106 503.63 -0.882911 -0.348825 0.314308
-9.50578 -15.7591 503.454 -0.89748 -0.34381 0.27627
-9.6468 -15.5199 503.282 -0.904889 -0.333223 0.264838
-9.78794 -15.2803 503.11 -0.922187 -0.29721 0.247461
-9.91004 -14.96 502.908 -0.933328 -0.258648 0.248996
-10.0443 -14.6897 502.724 -0.948904 -0.224764 0.221499
-10.1576 -14.3301 502.507 -0.951743 -0.225157 0.208543
-10.2776 -13.9911 502.296 -0.942779 -0.195708 0.269938
-10.3974 -13.6634 502.092 -0.962895 -0.168286 0.210979
-10.4996 -13.2529 501.856 -0.976626 -0.1743 0.125783
-10.6128 -12.888 501.637 -0.986128 -0.152201 0.0662246
-10.6821 -12.3353 501.347 -0.988668 -0.149958 0.00694292
-10.7612 -11.822 501.072 -0.992237 -0.124362 0.00092647
-10.8072 -11.1658 500.743 -0.992383 -0.121993 0.017142
-10.8839 -10.6386 500.462 -0.993078 -0.11638 0.0158857
5.30927 -17.2248 510.599 0.423266 -0.498095 0.7568
5.04539 -17.4631 510.6 0.328312 -0.502834 0.799606
4.8129 -17.587 510.562 0.182593 -0.506932 0.842425
4.57696 -17.7241 510.527 0.147165 -0.506549 0.849559
4.34379 -17.8514 510.49 0.153353 -0.524286 0.83762
4.10847 -17.9872 510.455 0.200676 -0.541706 0.816262
3.87235 -18.1264 510.422 0.173126 -0.533239 0.82806
3.64161 -18.2456 510.382 0.135019 -0.518173 0.844551
3.41072 -18.367 510.342 0.0960416 -0.525508 0.845351
3.18226 -18.4785 510.299 0.0985116 -0.540984 0.835243
2.95483 -18.5883 510.256 0.111415 -0.543857 0.831749
2.7286 -18.6932 510.21 0.0537658 -0.545993 0.836062
2.50922 -18.7729 510.156 0.0358224 -0.550988 0.833744
2.28283 -18.8791 510.111 0.0404707 -0.549396 0.834581
2.05923 -18.9753 510.063 0.022418 -0.553702 0.832413
1.84408 -19.0402 510.004 0.00470263 -0.547407 0.836853
1.62214 -19.1309 509.953 -0.00162051 -0.534279 0.845306
1.40264 -19.2128 509.9 -0.0138999 -0.540625 0.841149
1.18693 -19.2807 509.842 -0.0895227 -0.537133 0.838733
0.974089 -19.3381 509.78 -0.117017 -0.569475 0.813637
0.764047 -19.3851 509.714 -0.0925264 -0.607359 0.789021
0.553326 -19.435 509.649 -0.0920444 -0.587275 0.804137
0.334361 -19.5163 509.596 -0.109903 -0.571647 0.813106
0.128326 -19.5489 509.525 -0.112422 -0.585623 0.802749
-0.0762589 -19.5761 509.452 -0.151974 -0.574338 0.804388
-0.283969 -19.6154 509.384 -0.205324 -0.569102 0.796219
-0.490892 -19.6519 509.315 -0.249612 -0.585582 0.771225
-0.687603 -19.6495 509.231 -0.221984 -0.584106 0.780732
-0.894033 -19.6844 509.161 -0.202559 -0.559103 0.803974
-1.09071 -19.682 509.078 -0.258687 -0.544203 0.798075
-1.296 -19.7128 509.006 -0.258181 -0.568003 0.781483
-1.50298 -19.7503 508.937 -0.253877 -0.590972 0.765702
-1.70446 -19.767 508.861 -0.268624 -0.603802 0.750509
-1.90007 -19.7604 508.776 -0.29307 -0.586318 0.755209
-2.10044 -19.7731 508.698 -0.303946 -0.579339 0.756296
-2.29792 -19.7744 508.616 -0.326724 -0.579971 0.746247
-2.49035 -19.7561 508.527 -0.369032 -0.554447 0.745925
-2.68287 -19.7378 508.438 -0.384211 -0.561489 0.732879
-2.8786 -19.7327 508.353 -0.376273 -0.599066 0.70678
-3.07093 -19.7141 508.264 -0.386481 -0.608946 0.692689
-3.26214 -19.6911 508.173 -0.40277 -0.595128 0.695413
-3.45453 -19.672 508.084 -0.4404 -0.586254 0.679967
-3.64167 -19.635 507.988 -0.429893 -0.611485 0.664288
-3.83391 -19.6147 507.898 -0.405697 -0.606396 0.683882
-4.02229 -19.5804 507.803 -0.446046 -0.562317 0.696306
-4.20396 -19.5189 507.698 -0.454547 -0.525508 0.719186
-4.39136 -19.4822 507.602 -0.525843 -0.48428 0.699258
-4.57779 -19.4392 507.504 -0.563612 -0.519694 0.642075
-4.75488 -19.36 507.392 -0.507587 -0.555207 0.658863
-4.94337 -19.3257 507.297 -0.565546 -0.509551 0.648471
-5.11757 -19.2346 507.182 -0.610602 -0.5105 0.605438
-5.3082 -19.2087 507.09 -0.581115 -0.561586 0.589005
-5.48386 -19.123 506.976 -0.541718 -0.597395 0.59132
-5.66034 -19.0412 506.864 -0.63009 -0.540404 0.557629
-5.82844 -18.9239 506.738 -0.634068 -0.509572 0.581632
-6.01329 -18.8743 506.637 -0.572832 -0.53784 0.61854
-6.19174 -18.7989 506.527 -0.626797 -0.505727 0.592761
-6.36458 -18.7006 506.408 -0.655602 -0.49186 0.572939
-6.5351 -18.5928 506.286 -0.699449 -0.451193 0.554253
-6.70544 -18.4839 506.163 -0.690723 -0.448668 0.567097
-6.88016 -18.3924 506.047 -0.702751 -0.496185 0.509844
-7.04317 -18.2531 505.913 -0.731851 -0.472859 0.490712
-7.20732 -18.1181 505.781 -0.722428 -0.43135 0.540402
-7.37301 -17.9888 505.651 -0.742191 -0.410481 0.529771
-7.54181 -17.8724 505.525 -0.746032 -0.44661 0.493939
-7.71066 -17.7556 505.4 -0.756572 -0.456844 0.467859
-7.86809 -17.5907 505.256 -0.770614 -0.41527 0.483431
-8.02482 -17.4231 505.111 -0.791642 -0.381228 0.477461
-8.19104 -17.2953 504.982 -0.80188 -0.400481 0.4434
-8.34817 -17.127 504.836 -0.8082 -0.407793 0.424873
-8.5074 -16.9682 504.695 -0.826003 -0.380463 0.415893
-8.65616 -16.7656 504.537 -0.837719 -0.360006 0.410637
-8.80635 -16.5682 504.381 -0.850821 -0.345959 0.395494
-8.9595 -16.3825 504.23 -0.86778 -0.346426 0.356296
-9.10459 -16.1627 504.066 -0.879648 -0.355613 0.315847
-9.25418 -15.9609 503.908 -0.869136 -0.370975 0.327078
-9.39699 -15.7301 503.739 -0.877331 -0.347811 0.330634
-9.54544 -15.5221 503.579 -0.894734 -0.293891 0.336272
-9.6847 -15.2761 503.405 -0.904572 -0.249486 0.345696
-9.81415 -14.986 503.214 -0.925183 -0.222854 0.307201
-9.94503 -14.7019 503.026 -0.934412 -0.216304 0.282997
-10.0684 -14.3851 502.825 -0.945641 -0.212892 0.245847
-10.1914 -14.0658 502.623 -0.962317 -0.203868 0.179955
-10.2961 -13.6682 502.392 -0.949933 -0.223683 0.218159
-10.4418 -13.4426 502.224 -0.95856 -0.210627 0.191832
-10.5443 -13.0331 501.989 -0.975658 -0.16418 0.145386
-10.6399 -12.5926 501.741 -0.984128 -0.152931 0.0900267
-10.7343 -12.146 501.491 -0.989039 -0.14577 -0.0234969
-10.7825 -11.5005 501.167 -0.991492 -0.119159 -0.0523883
-10.8366 -10.8777 500.851 -0.992422 -0.11885 -0.031203
-10.9052 -10.3148 500.557 -0.994923 -0.100638 -0.000275843
5.01292 -17.2187 510.725 0.257856 -0.471645 0.843244
4.7731 -17.3694 510.696 0.145548 -0.468475 0.871405
4.53728 -17.5059 510.661 0.161251 -0.491563 0.855782
4.29877 -17.6528 510.63 0.187317 -0.519248 0.833843
4.06072 -17.7986 510.599 0.170921 -0.527813 0.831985
3.83294 -17.907 510.555 0.135916 -0.524163 0.840702
3.60096 -18.0313 510.517 0.135825 -0.52066 0.842891
3.36813 -18.16 510.479 0.119586 -0.52979 0.839655
3.14106 -18.2663 510.435 0.106016 -0.541269 0.834139
2.91156 -18.3833 510.393 0.095563 -0.53744 0.83787
2.68528 -18.4873 510.348 0.0537454 -0.541439 0.83902
2.46097 -18.5862 510.3 0.0436275 -0.566772 0.822719
2.24233 -18.6629 510.245 0.0533068 -0.568712 0.820807
2.02013 -18.7537 510.195 0.00453724 -0.54311 0.83965
1.80035 -18.8359 510.141 -0.0155932 -0.545199 0.838162
1.58278 -18.91 510.085 0.00942345 -0.543118 0.839604
1.36049 -19.0022 510.036 -0.0410554 -0.518419 0.85414
1.14758 -19.0594 509.973 -0.0578868 -0.519452 0.852537
0.923856 -19.1578 509.926 -0.0696663 -0.555615 0.828516
0.713443 -19.2061 509.861 -0.130883 -0.582802 0.802004
0.507053 -19.2395 509.79 -0.120619 -0.576346 0.808255
0.302455 -19.2662 509.717 -0.0941853 -0.565016 0.819687
0.083493 -19.3477 509.664 -0.140401 -0.565167 0.812942
-0.123191 -19.3827 509.594 -0.177076 -0.535769 0.825588
-0.333641 -19.4323 509.529 -0.201143 -0.521361 0.829291
-0.532772 -19.4389 509.449 -0.264492 -0.543061 0.79695
-0.735368 -19.4588 509.373 -0.256051 -0.582636 0.771345
-0.933874 -19.4632 509.292 -0.208411 -0.602826 0.770172
-1.14664 -19.5224 509.231 -0.208181 -0.597873 0.774086
-1.34664 -19.5328 509.152 -0.217785 -0.595743 0.773085
-1.54674 -19.5437 509.073 -0.244342 -0.567168 0.786522
-1.74602 -19.5517 508.994 -0.311974 -0.530776 0.788003
-1.94277 -19.5492 508.91 -0.314971 -0.538415 0.781603
-2.14175 -19.5563 508.83 -0.309201 -0.552581 0.773983
-2.33682 -19.548 508.745 -0.365779 -0.542648 0.756134
-2.52953 -19.5306 508.656 -0.359466 -0.548823 0.754703
-2.73094 -19.547 508.579 -0.339048 -0.550072 0.763195
-2.92541 -19.5371 508.493 -0.372361 -0.555475 0.743501
-3.1179 -19.5184 508.404 -0.412892 -0.559321 0.718805
-3.3061 -19.4834 508.309 -0.415137 -0.562127 0.715314
-3.49784 -19.4622 508.218 -0.419361 -0.538309 0.730999
-3.68968 -19.4414 508.128 -0.457405 -0.511756 0.727246
-3.87234 -19.3845 508.025 -0.471761 -0.506735 0.721568
-4.05958 -19.3455 507.928 -0.498091 -0.502283 0.706836
-4.24541 -19.3003 507.829 -0.494206 -0.512704 0.702065
-4.43386 -19.2671 507.735 -0.466833 -0.532478 0.706069
-4.62211 -19.2313 507.639 -0.536413 -0.513986 0.669387
-4.80209 -19.1632 507.532 -0.552988 -0.505402 0.6624
-4.98325 -19.0997 507.426 -0.550571 -0.512261 0.659136
-5.16687 -19.0457 507.324 -0.560944 -0.520452 0.643794
-5.34265 -18.9604 507.21 -0.557997 -0.484643 0.673617
-5.52656 -18.9073 507.108 -0.590173 -0.459036 0.664065
-5.70641 -18.8379 507 -0.663797 -0.465877 0.585092
-5.87319 -18.7158 506.873 -0.622835 -0.489026 0.610681
-6.05935 -18.6712 506.774 -0.593526 -0.530731 0.605023
-6.22468 -18.5427 506.644 -0.632387 -0.499978 0.5917
-6.41082 -18.4978 506.545 -0.682336 -0.458475 0.569402
-6.56665 -18.3302 506.401 -0.705398 -0.458865 0.540237
-6.7466 -18.2599 506.293 -0.634784 -0.47573 0.608876
-6.92434 -18.1803 506.181 -0.712768 -0.44574 0.541551
-7.08298 -18.023 506.04 -0.770651 -0.419722 0.47951
-7.24596 -17.882 505.906 -0.735874 -0.453326 0.502976
-7.41862 -17.7809 505.786 -0.707467 -0.492548 0.506839
-7.58849 -17.6687 505.662 -0.731962 -0.471565 0.49179
-7.74829 -17.5143 505.523 -0.784122 -0.40221 0.472631
-7.90527 -17.3473 505.378 -0.789162 -0.390199 0.474309
-8.07439 -17.2307 505.253 -0.773803 -0.432194 0.463074
-8.23128 -17.0633 505.108 -0.793582 -0.413094 0.446745
-8.3904 -16.9046 504.967 -0.819384 -0.381182 0.428148
-8.53988 -16.7044 504.81 -0.83464 -0.36577 0.411811
-8.69738 -16.5384 504.666 -0.84198 -0.360281 0.401581
-8.85118 -16.3556 504.516 -0.84498 -0.380738 0.375563
-9.00438 -16.1687 504.364 -0.857162 -0.378184 0.349643
-9.15526 -15.9726 504.208 -0.876483 -0.375518 0.30127
-9.29715 -15.7383 504.039 -0.878897 -0.360954 0.311852
-9.44837 -15.5422 503.883 -0.899575 -0.335272 0.279924
-9.57199 -15.229 503.684 -0.91378 -0.283136 0.291272
-9.70732 -14.9659 503.503 -0.910199 -0.247128 0.332363
-9.84817 -14.724 503.331 -0.929399 -0.251574 0.270052
-9.97186 -14.4092 503.131 -0.936901 -0.258516 0.235344
-10.1099 -14.1536 502.953 -0.945116 -0.253234 0.206467
-10.2281 -13.8137 502.743 -0.96154 -0.204499 0.183362
-10.3444 -13.4643 502.53 -0.952322 -0.246629 0.1796
-10.4671 -13.1406 502.326 -0.965169 -0.229039 0.126452
-10.5524 -12.6575 502.063 -0.975136 -0.183132 0.124785
-10.6887 -12.3893 501.88 -0.978716 -0.194942 0.0641249
-10.7624 -11.8536 501.597 -0.991476 -0.130195 -0.00499172
-10.8288 -11.2846 501.302 -0.996674 -0.0793119 0.0187276
-10.8804 -10.6506 500.982 -0.995711 -0.0923269 -0.00595812
-10.9279 -9.99678 500.654 -0.990374 -0.121588 -0.0661405
4.97358 -16.9992 510.859 0.285985 -0.556455 0.780109
4.73901 -17.1306 510.822 0.220683 -0.526915 0.820768
4.49347 -17.3028 510.8 0.222153 -0.517239 0.826506
4.25545 -17.4478 510.769 0.210131 -0.543486 0.812692
4.02294 -17.5731 510.731 0.173579 -0.554224 0.814067
3.7886 -17.7056 510.695 0.151814 -0.555395 0.817612
3.55745 -17.8267 510.655 0.167161 -0.556671 0.813741
3.32452 -17.955 510.618 0.142579 -0.547837 0.824346
3.09453 -18.0728 510.577 0.104165 -0.551005 0.827975
2.87056 -18.1677 510.528 0.103993 -0.559176 0.822501
2.64196 -18.2821 510.486 0.0852035 -0.54233 0.835834
2.41609 -18.3862 510.44 0.0376762 -0.54758 0.835905
2.19455 -18.4733 510.388 0.0110389 -0.575433 0.817774
1.97843 -18.5417 510.33 0.021811 -0.576636 0.81671
1.75594 -18.6339 510.28 -0.00206397 -0.567257 0.823538
1.54061 -18.6997 510.221 -0.0185324 -0.572482 0.819708
1.32611 -18.7622 510.16 -0.0166284 -0.568776 0.822324
1.10542 -18.8486 510.109 0.00945449 -0.558836 0.829224
0.884352 -18.9368 510.058 -0.0504694 -0.535495 0.843029
0.674563 -18.9826 509.991 -0.164922 -0.516674 0.840148
0.465395 -19.0263 509.924 -0.154696 -0.522833 0.838281
0.247909 -19.1018 509.869 -0.105221 -0.550941 0.827884
0.0414475 -19.1356 509.798 -0.182365 -0.568979 0.801877
-0.151716 -19.119 509.71 -0.196806 -0.539023 0.818976
-0.365533 -19.1812 509.649 -0.167797 -0.534067 0.828623
-0.574229 -19.2241 509.582 -0.202841 -0.568654 0.797175
-0.783221 -19.2683 509.515 -0.228012 -0.582847 0.779936
-0.984697 -19.2839 509.438 -0.222104 -0.583307 0.781295
-1.18482 -19.2945 509.359 -0.219105 -0.576205 0.787389
-1.38592 -19.3094 509.282 -0.27492 -0.538565 0.796471
-1.58751 -19.3246 509.205 -0.302737 -0.529667 0.79234
-1.78242 -19.3159 509.119 -0.300117 -0.536453 0.788763
-1.98727 -19.3454 509.048 -0.295228 -0.542965 0.786148
-2.18354 -19.3409 508.963 -0.322123 -0.537945 0.779007
-2.38306 -19.3501 508.884 -0.361558 -0.527497 0.76878
-2.5756 -19.3317 508.795 -0.362274 -0.536266 0.762349
-2.76829 -19.3135 508.706 -0.336351 -0.519305 0.785615
-2.96656 -19.3187 508.625 -0.369944 -0.52022 0.769749
-3.15915 -19.3001 508.536 -0.411973 -0.54351 0.731351
-3.35137 -19.2811 508.446 -0.447041 -0.550281 0.705227
-3.53471 -19.2262 508.344 -0.444576 -0.556911 0.701571
-3.72381 -19.1944 508.25 -0.459025 -0.528347 0.714244
-3.91339 -19.1644 508.156 -0.472807 -0.502441 0.723883
-4.10418 -19.1392 508.064 -0.485169 -0.509826 0.710414
-4.28703 -19.0825 507.961 -0.472075 -0.535376 0.70037
-4.47918 -19.0626 507.871 -0.472835 -0.548478 0.689637
-4.65896 -18.9935 507.764 -0.542847 -0.510817 0.66662
-4.84089 -18.9329 507.659 -0.546826 -0.484532 0.682796
-5.02705 -18.889 507.56 -0.538597 -0.505817 0.673842
-5.20757 -18.8224 507.454 -0.603781 -0.504805 0.616945
-5.37893 -18.7191 507.333 -0.579531 -0.494327 0.647908
-5.56721 -18.6832 507.238 -0.556831 -0.486503 0.673241
-5.7419 -18.5928 507.122 -0.652644 -0.476143 0.589358
-5.91605 -18.4999 507.005 -0.583366 -0.522637 0.621719
-6.10706 -18.4747 506.914 -0.617069 -0.508038 0.600935
-6.27295 -18.3465 506.783 -0.659788 -0.508258 0.553492
-6.44901 -18.2623 506.671 -0.672854 -0.504613 0.540956
-6.61952 -18.1537 506.548 -0.712159 -0.495449 0.497353
-6.78746 -18.0344 506.422 -0.636956 -0.530084 0.55973
-6.96345 -17.9475 506.307 -0.713501 -0.451687 0.535626
-7.12505 -17.8024 506.172 -0.756167 -0.433285 0.490383
-7.29776 -17.7015 506.052 -0.710487 -0.480288 0.514327
-7.46593 -17.5811 505.925 -0.71737 -0.458451 0.524598
-7.6288 -17.4393 505.79 -0.769359 -0.39923 0.4987
-7.78562 -17.2729 505.646 -0.791973 -0.39884 0.462282
-7.95109 -17.1403 505.514 -0.762842 -0.451157 0.463174
-8.11478 -16.9996 505.379 -0.780972 -0.426287 0.456467
-8.27112 -16.8296 505.234 -0.80612 -0.389403 0.445573
-8.43012 -16.6718 505.094 -0.825507 -0.398704 0.399467
-8.58472 -16.4904 504.943 -0.837331 -0.391399 0.381684
-8.7386 -16.3081 504.793 -0.826407 -0.376803 0.418415
-8.89432 -16.1338 504.646 -0.837765 -0.355645 0.414326
-9.04508 -15.9374 504.491 -0.844376 -0.347975 0.40736
-9.19961 -15.7559 504.341 -0.882078 -0.337105 0.329089
-9.33355 -15.4882 504.159 -0.880854 -0.331408 0.338031
-9.48879 -15.3084 504.01 -0.910542 -0.250303 0.329032
-9.60348 -14.9583 503.797 -0.928561 -0.251565 0.272927
-9.75458 -14.7597 503.64 -0.907292 -0.316122 0.277287
-9.88523 -14.4745 503.452 -0.925516 -0.282377 0.252356
-10.0244 -14.2241 503.276 -0.936076 -0.277392 0.216371
-10.143 -13.8864 503.067 -0.953939 -0.241819 0.177549
-10.2526 -13.5095 502.844 -0.952027 -0.20989 0.222691
-10.3918 -13.2563 502.667 -0.946944 -0.210909 0.242518
-10.5069 -12.8998 502.451 -0.971404 -0.188788 0.143992
-10.6174 -12.5229 502.228 -0.969565 -0.223736 0.0994247
-10.7263 -12.1378 502.001 -0.982503 -0.175015 0.0636986
-10.7882 -11.5512 501.7 -0.996181 -0.081751 0.030669
-10.8213 -10.8393 501.351 -0.995879 -0.0701392 0.0574947
-10.9096 -10.3608 501.09 -0.994559 -0.100095 0.0288536
4.91824 -16.8384 511.013 0.266144 -0.616701 0.740842
4.68933 -16.9488 510.969 0.247789 -0.580455 0.775675
4.4463 -17.1118 510.944 0.267549 -0.54047 0.79769
4.20538 -17.2675 510.916 0.205152 -0.535262 0.819394
3.96929 -17.406 510.883 0.165202 -0.550221 0.818514
3.7411 -17.5157 510.839 0.157342 -0.553641 0.817756
3.50733 -17.6465 510.802 0.147451 -0.556408 0.817722
3.28183 -17.7471 510.755 0.140324 -0.555181 0.819807
3.04936 -17.874 510.717 0.113501 -0.548846 0.828182
2.82194 -17.9824 510.673 0.0784862 -0.563061 0.82268
2.60146 -18.0658 510.62 0.0928748 -0.56221 0.821762
2.37247 -18.1809 510.578 0.0675986 -0.545855 0.835148
2.14935 -18.2743 510.528 -0.000202848 -0.547095 0.837071
1.93046 -18.3529 510.474 -0.00525318 -0.559464 0.828838
1.71209 -18.4296 510.418 -0.00443301 -0.55555 0.831471
1.49188 -18.5134 510.365 -0.0299288 -0.559303 0.828423
1.27327 -18.5914 510.31 -0.00842703 -0.6006 0.799505
1.05873 -18.6547 510.25 -0.012004 -0.600535 0.799509
0.848017 -18.7035 510.185 -0.0848981 -0.542929 0.835476
0.634642 -18.7628 510.123 -0.154563 -0.520001 0.840065
0.428508 -18.7948 510.052 -0.101342 -0.547989 0.830324
0.211938 -18.8666 509.995 -0.0912616 -0.542411 0.835141
1.10882e-005 -18.921 509.932 -0.234217 -0.539223 0.808938
-0.203053 -18.9419 509.857 -0.176474 -0.608067 0.774023
-0.415933 -19.0005 509.795 -0.0812165 -0.627988 0.773973
-0.624704 -19.0436 509.728 -0.171807 -0.601444 0.780223
-0.822622 -19.0452 509.646 -0.229284 -0.576894 0.783979
-1.0262 -19.0687 509.572 -0.24514 -0.542213 0.803686
-1.23166 -19.0996 509.5 -0.282296 -0.53753 0.794588
-1.42595 -19.0875 509.413 -0.2759 -0.573609 0.771266
-1.62906 -19.1096 509.338 -0.280442 -0.576552 0.767424
-1.82803 -19.1158 509.258 -0.282493 -0.568594 0.772592
-2.02742 -19.1239 509.178 -0.298614 -0.550771 0.779411
-2.22253 -19.1148 509.092 -0.332532 -0.540477 0.772857
-2.41891 -19.1114 509.009 -0.348072 -0.535831 0.769241
-2.61362 -19.1013 508.922 -0.391112 -0.5129 0.764177
-2.8067 -19.0849 508.834 -0.329455 -0.531775 0.780176
-3.01084 -19.1119 508.761 -0.329983 -0.539321 0.774754
-3.20342 -19.0934 508.672 -0.401016 -0.526852 0.749409
-3.39549 -19.0731 508.582 -0.443533 -0.522267 0.728365
-3.58577 -19.0457 508.489 -0.481361 -0.53398 0.695094
-3.76998 -18.9945 508.388 -0.485929 -0.552596 0.677134
-3.95199 -18.9343 508.284 -0.455099 -0.546291 0.703172
-4.1434 -18.9115 508.193 -0.453229 -0.528688 0.717686
-4.33359 -18.883 508.1 -0.456148 -0.531305 0.713894
-4.52256 -18.8513 508.006 -0.508106 -0.515346 0.690107
-4.70166 -18.7788 507.897 -0.574067 -0.491486 0.654896
-4.88173 -18.7104 507.789 -0.522329 -0.497258 0.692753
-5.07019 -18.6754 507.694 -0.523231 -0.480619 0.703729
-5.25191 -18.6133 507.589 -0.622994 -0.460382 0.632397
-5.42373 -18.5116 507.469 -0.594396 -0.491806 0.636254
-5.60713 -18.456 507.366 -0.536584 -0.519907 0.664661
-5.79313 -18.4106 507.267 -0.623855 -0.485642 0.612337
-5.96389 -18.3039 507.145 -0.591196 -0.489133 0.641277
-6.1439 -18.2356 507.039 -0.602445 -0.44137 0.665021
-6.32077 -18.1514 506.924 -0.656943 -0.406142 0.635197
-6.49641 -18.0636 506.809 -0.665657 -0.449117 0.595982
-6.66551 -17.9491 506.685 -0.706586 -0.458316 0.539149
-6.83463 -17.8343 506.56 -0.692159 -0.470675 0.547157
-7.00419 -17.7209 506.436 -0.713179 -0.447895 0.539227
-7.17132 -17.5974 506.308 -0.731049 -0.424266 0.534384
-7.33659 -17.4658 506.177 -0.727171 -0.426079 0.538218
-7.49954 -17.3244 506.042 -0.750256 -0.413352 0.516
-7.66463 -17.1913 505.911 -0.760403 -0.411757 0.502238
-7.83464 -17.0765 505.785 -0.762258 -0.44577 0.46931
-7.99711 -16.9341 505.651 -0.776479 -0.453261 0.437761
-8.15415 -16.7659 505.506 -0.799502 -0.407271 0.441505
-8.31373 -16.6084 505.365 -0.790497 -0.419753 0.446006
-8.47997 -16.4778 505.234 -0.824316 -0.389968 0.4104
-8.62241 -16.2503 505.068 -0.847345 -0.337053 0.410369
-8.7768 -16.0698 504.919 -0.827884 -0.311252 0.466615
-8.92794 -15.8735 504.763 -0.828344 -0.287103 0.481059
-9.08244 -15.6926 504.614 -0.828207 -0.32799 0.454418
-9.24027 -15.5237 504.468 -0.886166 -0.337883 0.317089
-9.37221 -15.2471 504.283 -0.908621 -0.281025 0.308923
-9.50254 -14.9628 504.095 -0.895318 -0.230917 0.380897
-9.65733 -14.7799 503.944 -0.91101 -0.283355 0.299619
-9.78714 -14.4916 503.755 -0.914989 -0.318274 0.247984
-9.92544 -14.238 503.578 -0.919436 -0.263263 0.292112
-10.0567 -13.9537 503.389 -0.933142 -0.213473 0.289265
-10.18 -13.6353 503.188 -0.955724 -0.162714 0.245187
-10.2889 -13.2546 502.964 -0.94682 -0.172337 0.27172
-10.4108 -12.9323 502.763 -0.940596 -0.206574 0.269456
-10.5367 -12.6165 502.561 -0.961188 -0.191699 0.198417
-10.6477 -12.2409 502.338 -0.971917 -0.160769 0.171845
-10.7423 -11.7945 502.089 -0.988759 -0.0967357 0.11401
-10.8001 -11.1891 501.78 -0.996709 -0.0590251 0.0555645
-10.8645 -10.6097 501.481 -0.992842 -0.119393 0.00305989
-10.9527 -10.1305 501.219 -0.985603 -0.167547 -0.0226736
4.86912 -16.6545 511.16 0.142796 -0.519226 0.842623
4.63971 -16.7667 511.117 0.175404 -0.539317 0.823633
4.40239 -16.9086 511.084 0.234437 -0.53631 0.810809
4.16597 -17.0476 511.05 0.198374 -0.518109 0.831992
3.92994 -17.1858 511.016 0.142319 -0.513252 0.846355
3.69838 -17.3079 510.976 0.141146 -0.528593 0.837059
3.46416 -17.4403 510.94 0.13663 -0.545748 0.826735
3.23527 -17.5534 510.897 0.122758 -0.553312 0.823879
3.0059 -17.6687 510.855 0.117419 -0.540808 0.83291
2.77863 -17.7767 510.811 0.0711474 -0.546172 0.834646
2.55236 -17.8813 510.765 0.0650371 -0.563791 0.823353
2.33155 -17.9643 510.712 0.0618902 -0.558505 0.827189
2.10856 -18.059 510.663 0.0174409 -0.550781 0.834467
1.88971 -18.1369 510.608 -0.00740743 -0.565206 0.824916
1.67108 -18.2144 510.552 0.00190833 -0.566741 0.823894
1.45155 -18.2955 510.498 0.0228809 -0.548289 0.835976
1.22504 -18.4033 510.454 -0.0331809 -0.554236 0.831698
1.01644 -18.4439 510.386 -0.119915 -0.567783 0.814397
0.807086 -18.4875 510.319 -0.106452 -0.582064 0.806145
0.595675 -18.5391 510.254 -0.0820322 -0.586889 0.805502
0.376291 -18.6212 510.201 -0.0899412 -0.587974 0.803864
0.170508 -18.6519 510.129 -0.0860561 -0.584781 0.806614
-0.0441775 -18.7167 510.07 -0.129891 -0.566029 0.814088
-0.254036 -18.7634 510.004 -0.16017 -0.555392 0.816018
-0.460775 -18.7984 509.933 -0.166768 -0.534437 0.828592
-0.665116 -18.8243 509.86 -0.240655 -0.504741 0.829048
-0.86955 -18.8508 509.787 -0.287718 -0.539823 0.791081
-1.06358 -18.8374 509.699 -0.243307 -0.566609 0.787246
-1.26982 -18.8711 509.629 -0.235601 -0.533778 0.812141
-1.47776 -18.9115 509.561 -0.281166 -0.541956 0.791978
-1.6736 -18.9053 509.476 -0.295889 -0.559865 0.773951
-1.8716 -18.9075 509.394 -0.303951 -0.575972 0.758861
-2.06776 -18.9027 509.309 -0.304136 -0.574558 0.759858
-2.2696 -18.9204 509.233 -0.331311 -0.565876 0.754995
-2.46239 -18.9022 509.144 -0.366883 -0.569842 0.735307
-2.6551 -18.8839 509.055 -0.358599 -0.574063 0.73611
-2.85296 -18.8861 508.973 -0.306507 -0.580666 0.754242
-3.04901 -18.8812 508.888 -0.338541 -0.54505 0.767014
-3.24158 -18.8625 508.799 -0.404448 -0.507148 0.761067
-3.43417 -18.8436 508.71 -0.425772 -0.496503 0.756441
-3.62325 -18.8123 508.616 -0.464887 -0.472411 0.748804
-3.81342 -18.7836 508.523 -0.507995 -0.467656 0.723352
-3.99857 -18.7353 508.422 -0.483628 -0.496936 0.720527
-4.18764 -18.7037 508.328 -0.45113 -0.517002 0.727455
-4.37337 -18.6575 508.229 -0.468843 -0.51126 0.720277
-4.56019 -18.6159 508.131 -0.523419 -0.487911 0.698552
-4.7417 -18.5532 508.026 -0.580212 -0.475394 0.661328
-4.92039 -18.4791 507.916 -0.541266 -0.511322 0.667519
-5.10404 -18.4246 507.814 -0.516791 -0.529235 0.672932
-5.28796 -18.371 507.712 -0.595112 -0.497865 0.630851
-5.46516 -18.2904 507.6 -0.576789 -0.503256 0.643465
-5.65327 -18.2533 507.504 -0.552604 -0.519985 0.651341
-5.82358 -18.1447 507.381 -0.629622 -0.454758 0.629898
-6.00043 -18.0622 507.269 -0.641633 -0.445374 0.624459
-6.17222 -17.9589 507.148 -0.627088 -0.48633 0.608476
-6.34876 -17.8746 507.035 -0.607157 -0.463182 0.645618
-6.53234 -17.8184 506.931 -0.639838 -0.455572 0.618919
-6.70528 -17.7191 506.812 -0.699985 -0.4686 0.53892
-6.87367 -17.601 506.687 -0.706421 -0.446779 0.548961
-7.04368 -17.4891 506.563 -0.72802 -0.423428 0.539162
-7.20516 -17.3419 506.426 -0.731237 -0.431124 0.528607
-7.37853 -17.2432 506.307 -0.730088 -0.424497 0.535513
-7.54475 -17.1148 506.178 -0.749306 -0.440965 0.494055
-7.71034 -16.9854 506.048 -0.72952 -0.494746 0.472257
-7.87937 -16.8658 505.921 -0.748682 -0.478127 0.459205
-8.03962 -16.7119 505.781 -0.800709 -0.386428 0.457753
-8.19416 -16.5336 505.633 -0.788446 -0.362432 0.496987
-8.36306 -16.4141 505.506 -0.794531 -0.36888 0.482335
-8.50595 -16.1868 505.34 -0.843589 -0.313079 0.436278
-8.6599 -15.9998 505.187 -0.859725 -0.266952 0.435442
-8.79657 -15.7501 505.013 -0.839033 -0.275505 0.46917
-8.95742 -15.5943 504.873 -0.80108 -0.322398 0.504312
-9.12314 -15.4603 504.741 -0.791916 -0.385018 0.473951
-9.28703 -15.3167 504.605 -0.903095 -0.291548 0.315309
-9.39179 -14.9261 504.378 -0.931587 -0.236845 0.275771
-9.54128 -14.7268 504.223 -0.871262 -0.340421 0.353576
-9.6978 -14.5488 504.074 -0.891607 -0.314686 0.325592
-9.83112 -14.2711 503.887 -0.931825 -0.24522 0.267524
-9.95087 -13.939 503.681 -0.935619 -0.251232 0.247993
-10.0786 -13.6393 503.487 -0.946413 -0.211451 0.244114
-10.1891 -13.2658 503.265 -0.955317 -0.162841 0.246683
-10.3087 -12.925 503.055 -0.938365 -0.190314 0.288535
-10.4572 -12.7148 502.895 -0.943025 -0.252432 0.216754
-10.5683 -12.3403 502.673 -0.967427 -0.216675 0.130905
-10.6709 -11.9283 502.437 -0.980569 -0.15779 0.11656
-10.7556 -11.439 502.172 -0.991821 -0.100547 0.078625
-10.8214 -10.8667 501.876 -0.993439 -0.104111 0.0473141
-10.9185 -10.4265 501.629 -0.985642 -0.165704 -0.0324243
-10.9825 -9.8425 501.328 -0.98276 -0.179007 -0.0462436
4.83207 -16.4267 511.291 0.188254 -0.533378 0.824662
4.59694 -16.5592 511.255 0.197289 -0.545796 0.814361
4.3543 -16.7206 511.229 0.201518 -0.540969 0.816543
4.12456 -16.835 511.186 0.181927 -0.528005 0.829526
3.88466 -16.9874 511.157 0.18116 -0.541714 0.820808
3.65392 -17.1063 511.116 0.172611 -0.54447 0.820828
3.41609 -17.2521 511.085 0.13825 -0.539486 0.830567
3.19261 -17.3444 511.035 0.102591 -0.550181 0.828719
2.96327 -17.4601 510.993 0.110633 -0.53818 0.835537
2.7341 -17.5743 510.95 0.0834807 -0.530871 0.843331
2.50865 -17.6753 510.903 0.0478061 -0.547692 0.835313
2.28676 -17.765 510.852 0.044014 -0.563224 0.825131
2.06246 -17.863 510.804 0.0395748 -0.564697 0.824349
1.84056 -17.9523 510.753 0.000853501 -0.573289 0.819353
1.62384 -18.0224 510.695 -0.00524963 -0.593064 0.805138
1.40742 -18.0917 510.637 0.0399295 -0.583606 0.811055
1.1856 -18.1817 510.586 -0.0227149 -0.562302 0.82662
0.97235 -18.2397 510.524 -0.100815 -0.563612 0.819865
0.754646 -18.3148 510.468 -0.0956939 -0.584136 0.805995
0.54553 -18.3576 510.4 -0.0740661 -0.603049 0.794258
0.334847 -18.4066 510.335 -0.0920741 -0.591734 0.800858
0.123614 -18.4579 510.271 -0.119169 -0.580265 0.805662
-0.0858545 -18.5027 510.204 -0.139041 -0.585627 0.798567
-0.287138 -18.5164 510.126 -0.191796 -0.549242 0.813356
-0.494368 -18.553 510.056 -0.215396 -0.51935 0.826971
-0.697491 -18.574 509.981 -0.185551 -0.525674 0.830203
-0.914205 -18.6474 509.925 -0.251536 -0.543072 0.801126
-1.10852 -18.6349 509.838 -0.284776 -0.578138 0.76463
-1.31187 -18.6573 509.763 -0.201312 -0.599219 0.774862
-1.5115 -18.6655 509.683 -0.249601 -0.564831 0.786553
-1.7159 -18.6921 509.61 -0.276517 -0.551452 0.787044
-1.91944 -18.7156 509.536 -0.311652 -0.554552 0.771586
-2.11405 -18.7046 509.449 -0.320824 -0.549578 0.771386
-2.3115 -18.7047 509.366 -0.329415 -0.540722 0.774019
-2.50776 -18.7005 509.282 -0.37142 -0.527628 0.763973
-2.70418 -18.696 509.198 -0.361364 -0.540238 0.759973
-2.89714 -18.6791 509.109 -0.36271 -0.536294 0.762122
-3.08983 -18.6607 509.02 -0.386421 -0.526122 0.757545
-3.28226 -18.6419 508.93 -0.412256 -0.526785 0.743332
-3.47159 -18.6098 508.836 -0.4474 -0.522605 0.725753
-3.65788 -18.5662 508.738 -0.459097 -0.505784 0.730351
-3.84691 -18.5334 508.643 -0.474629 -0.487195 0.733054
-4.03372 -18.4917 508.545 -0.462985 -0.507747 0.726524
-4.22617 -18.4723 508.456 -0.453357 -0.53119 0.715755
-4.41427 -18.4356 508.36 -0.486225 -0.520781 0.701693
-4.60039 -18.391 508.261 -0.521581 -0.522874 0.674207
-4.78236 -18.3298 508.156 -0.543039 -0.542853 0.64064
-4.96975 -18.2901 508.059 -0.517904 -0.576642 0.63187
-5.1558 -18.2449 507.96 -0.522454 -0.612741 0.592951
-5.33507 -18.1726 507.851 -0.585839 -0.588989 0.556672
-5.5099 -18.0822 507.735 -0.558157 -0.565192 0.607469
-5.69458 -18.0312 507.634 -0.606554 -0.529627 0.592948
-5.86246 -17.9125 507.508 -0.636486 -0.470835 0.610902
-6.04923 -17.8695 507.41 -0.600403 -0.47148 0.645928
-6.22797 -17.794 507.3 -0.656521 -0.522592 0.543946
-6.39572 -17.6739 507.173 -0.601481 -0.552081 0.577432
-6.58061 -17.6229 507.072 -0.598966 -0.534614 0.596177
-6.75348 -17.523 506.953 -0.719146 -0.480588 0.50186
-6.91166 -17.3625 506.811 -0.720485 -0.430495 0.543668
-7.08632 -17.2701 506.695 -0.719167 -0.423907 0.550546
-7.25209 -17.14 506.564 -0.739015 -0.453879 0.497845
-7.41616 -17.0029 506.431 -0.707002 -0.471977 0.526674
-7.59068 -16.908 506.314 -0.707115 -0.484343 0.515171
-7.76231 -16.8013 506.192 -0.736572 -0.467843 0.488451
-7.92278 -16.648 506.053 -0.797587 -0.360594 0.483557
-8.06801 -16.4318 505.891 -0.813317 -0.309517 0.492661
-8.22955 -16.282 505.753 -0.778559 -0.352084 0.519502
-8.38882 -16.1227 505.612 -0.814622 -0.330753 0.476437
-8.54175 -15.9361 505.46 -0.866976 -0.292443 0.403522
-8.67974 -15.6863 505.285 -0.866773 -0.292678 0.403787
-8.83813 -15.5227 505.143 -0.829233 -0.342402 0.441738
-8.99914 -15.3673 505.002 -0.762052 -0.441304 0.473844
-9.16935 -15.2533 504.878 -0.811489 -0.38797 0.436995
-9.30158 -14.975 504.692 -0.915566 -0.268947 0.29901
-9.44447 -14.7376 504.52 -0.915491 -0.297928 0.270398
-9.59356 -14.5326 504.362 -0.879471 -0.374334 0.293947
-9.72388 -14.2498 504.176 -0.910737 -0.318553 0.262836
-9.85907 -13.983 503.994 -0.929569 -0.264088 0.257212
-9.99846 -13.7329 503.818 -0.945356 -0.233959 0.227079
-10.1108 -13.3679 503.6 -0.961054 -0.217535 0.170449
