4.30542 -22.1259 507.756 0.25077 -0.54712 0.798607
4.06326 -22.1294 507.812 0.136835 -0.521019 0.842506
3.78705 -22.0898 507.854 0.0507945 -0.529117 0.847027
3.52795 -22.0722 507.903 0.0844467 -0.557178 0.826088
3.25515 -22.0364 507.947 0.0788663 -0.543968 0.835391
2.98374 -22.0041 507.991 0.0440485 -0.556015 0.830004
2.71344 -21.9734 508.036 0.038645 -0.574778 0.817396
2.42848 -21.9239 508.075 0.0388405 -0.563836 0.824973
2.14574 -21.8766 508.115 0.000320675 -0.537793 0.843077
1.84286 -21.806 508.147 -0.0189386 -0.545721 0.837753
1.53468 -21.7276 508.177 -0.0390601 -0.535632 0.843547
1.24503 -21.6732 508.214 -0.0477852 -0.525072 0.849715
0.947002 -21.6085 508.248 -0.0715757 -0.549902 0.832157
0.613011 -21.4987 508.268 -0.179638 -0.572439 0.800027
0.252289 -21.3556 508.277 -0.160893 -0.58672 0.793645
-0.0608238 -21.2729 508.306 -0.135598 -0.573736 0.807738
-0.433342 -21.1157 508.31 -0.259286 -0.545139 0.797241
-0.866778 -20.8825 508.29 -0.261669 -0.55575 0.789095
-1.23127 -20.7363 508.299 -0.225306 -0.554346 0.80121
-1.60249 -20.5822 508.304 -0.277783 -0.506104 0.816514
-2.07601 -20.3002 508.269 -0.305151 -0.458201 0.834826
-2.53471 -20.0375 508.24 -0.357352 -0.463555 0.810812
-3.04124 -19.7156 508.192 -0.400714 -0.528006 0.748757
-3.45438 -19.5111 508.181 -0.408491 -0.611018 0.67808
14.3991 -11.8885 500.601 0.993177 0.0664229 0.0958563
14.4365 -12.267 500.782 0.992683 0.0348474 0.115612
14.4113 -12.5604 500.935 0.994639 -0.0338207 0.097725
14.3828 -12.8489 501.086 0.990844 -0.0195897 0.133584
14.3495 -13.1308 501.235 0.972167 -0.0606301 0.226307
14.2882 -13.3745 501.371 0.97946 -0.123774 0.159181
7.334 -21.4793 506.996 0.444644 -0.402892 0.799981
7.15315 -21.5605 507.077 0.554425 -0.423607 0.716359
6.97822 -21.6483 507.16 0.393981 -0.508461 0.765667
6.74504 -21.662 507.219 0.291483 -0.587748 0.754712
6.53848 -21.7098 507.29 0.43983 -0.524371 0.729099
6.36011 -21.7938 507.372 0.329874 -0.482727 0.811269
6.10585 -21.7801 507.422 0.166538 -0.537346 0.826756
5.85521 -21.7721 507.474 0.222333 -0.561627 0.796959
5.64003 -21.8093 507.541 0.398224 -0.540846 0.74088
5.43795 -21.8633 507.613 0.482767 -0.501988 0.717596
5.24106 -21.9242 507.688 0.302902 -0.51778 0.800096
5.00716 -21.936 507.747 0.145724 -0.556343 0.818075
4.75278 -21.9245 507.798 0.140514 -0.568329 0.810714
4.49576 -21.9094 507.848 0.195657 -0.550461 0.81161
4.27463 -21.9395 507.913 0.179668 -0.542369 0.820704
3.99961 -21.9008 507.955 0.115362 -0.553391 0.824894
3.75408 -21.901 508.01 0.0855333 -0.55322 0.828633
3.46703 -21.8479 508.048 0.0714456 -0.54179 0.837472
3.20168 -21.823 508.094 0.0831006 -0.550239 0.830862
2.93949 -21.8015 508.143 0.0626367 -0.562671 0.824305
2.65311 -21.75 508.181 0.0294831 -0.562908 0.825993
2.3696 -21.7032 508.221 0.00369341 -0.554892 0.831914
2.06593 -21.6295 508.252 0.00538312 -0.53648 0.843896
1.79557 -21.599 508.297 -0.0438459 -0.578409 0.814568
1.47306 -21.5028 508.322 -0.0704436 -0.592959 0.802146
1.16276 -21.4223 508.351 -0.040006 -0.573033 0.818555
0.857619 -21.3487 508.382 -0.0710519 -0.58051 0.811147
0.555894 -21.2797 508.415 -0.162116 -0.565574 0.808606
0.178911 -21.1161 508.418 -0.158766 -0.555225 0.816406
-0.146323 -21.0181 508.442 -0.165662 -0.543103 0.823162
-0.531786 -20.8447 508.441 -0.249292 -0.54289 0.80195
-0.891038 -20.7047 508.451 -0.252585 -0.53844 0.803917
-1.29782 -20.5055 508.443 -0.254063 -0.509762 0.821946
-1.75334 -20.2456 508.414 -0.309232 -0.48056 0.820632
-2.2303 -19.9594 508.378 -0.325853 -0.488887 0.809203
-2.63815 -19.7604 508.37 -0.356036 -0.549783 0.75563
-3.08248 -19.5162 508.347 -0.377787 -0.598414 0.706525
-3.53164 -19.2666 508.322 -0.373737 -0.592784 0.713392
14.38 -11.7109 500.761 0.993748 0.0700126 0.0869633
14.4126 -12.0831 500.94 0.993873 0.0645172 0.0897496
14.3948 -12.3867 501.096 0.96757 0.0210698 0.251721
14.3357 -12.634 501.234 0.970759 0.0123862 0.239735
14.3239 -12.9451 501.392 0.988325 -0.0279733 0.149769
14.3071 -13.2489 501.548 0.985257 -0.0747685 0.15388
6.94994 -21.465 507.317 0.451927 -0.584771 0.673651
6.74787 -21.5201 507.389 0.282601 -0.547131 0.787899
6.49274 -21.5039 507.439 0.334155 -0.479886 0.811203
6.27286 -21.5347 507.504 0.33422 -0.479296 0.811525
6.0649 -21.5809 507.574 0.219062 -0.480555 0.849164
5.82499 -21.5863 507.63 0.271298 -0.477978 0.835425
5.6197 -21.6372 507.702 0.393872 -0.494842 0.774594
5.42506 -21.6988 507.777 0.412657 -0.523558 0.745386
5.214 -21.7424 507.846 0.29081 -0.568588 0.769504
4.96416 -21.7361 507.898 0.154451 -0.580215 0.799685
4.70448 -21.7164 507.947 0.138526 -0.551941 0.822297
4.45837 -21.7147 508.002 0.181022 -0.548617 0.816242
4.20145 -21.6994 508.052 0.17415 -0.539815 0.823573
3.96634 -21.7119 508.111 0.113487 -0.52117 0.845874
3.67484 -21.6541 508.147 0.0758871 -0.521258 0.850018
3.41433 -21.6338 508.195 0.084001 -0.54161 0.836422
3.15498 -21.616 508.245 0.089399 -0.565497 0.819891
2.87944 -21.5765 508.288 0.0532683 -0.572606 0.818098
2.60613 -21.5434 508.331 0.0117262 -0.575957 0.817396
2.30797 -21.4773 508.365 -0.0220689 -0.576053 0.817115
2.0155 -21.4186 508.401 0.0257795 -0.606481 0.79468
1.76356 -21.4114 508.454 -0.038316 -0.600472 0.798727
1.41847 -21.2867 508.469 -0.0807588 -0.574609 0.814434
1.14616 -21.2521 508.514 -0.037543 -0.57606 0.816545
0.834433 -21.1723 508.543 -0.089932 -0.555742 0.826476
0.477557 -21.0337 508.554 -0.162558 -0.542628 0.824094
0.124193 -20.9 508.566 -0.169153 -0.549937 0.817898
-0.216782 -20.7822 508.584 -0.171074 -0.532808 0.828764
-0.577905 -20.6394 508.593 -0.245503 -0.525486 0.814612
-1.03209 -20.3801 508.565 -0.271322 -0.525677 0.806256
-1.4304 -20.1916 508.56 -0.282425 -0.49841 0.819648
-1.84881 -19.9783 508.547 -0.338165 -0.546684 0.766016
-2.26355 -19.7701 508.536 -0.355867 -0.648503 0.672906
-2.65167 -19.5958 508.536 -0.377024 -0.672458 0.636909
-3.12553 -19.3146 508.501 -0.4021 -0.638826 0.655909
-3.58431 -19.0529 508.473 -0.401011 -0.595807 0.695848
14.3587 -11.5303 500.92 0.989477 0.0861055 0.116283
14.3717 -11.8762 501.091 0.980844 0.061761 0.184745
14.3027 -12.1106 501.223 0.962624 0.0427715 0.267442
14.3321 -12.4779 501.401 0.978097 0.0617352 0.198785
14.3233 -12.7931 501.56 0.978782 0.0249868 0.203375
14.2638 -13.0395 501.697 0.958229 -0.0167674 0.285511
14.2093 -13.2923 501.836 0.962515 -0.0489838 0.266767
14.1783 -13.5765 501.985 0.968303 -0.0770344 0.237604
6.93112 -21.2914 507.478 0.329633 -0.535869 0.777294
6.63355 -21.2241 507.51 0.230233 -0.482638 0.845017
6.44468 -21.2949 507.588 0.333432 -0.469751 0.817409
6.24773 -21.3552 507.662 0.282242 -0.535376 0.79606
5.97393 -21.317 507.705 0.238464 -0.462092 0.854169
5.75738 -21.3524 507.771 0.342697 -0.350585 0.871578
5.56584 -21.42 507.848 0.426379 -0.354573 0.832153
5.37138 -21.4839 507.924 0.411226 -0.425555 0.8061
5.16895 -21.5373 507.996 0.263818 -0.51953 0.812705
4.91617 -21.5275 508.048 0.121994 -0.552645 0.82444
4.64669 -21.4964 508.092 0.154848 -0.504093 0.849654
4.41263 -21.5093 508.152 0.176899 -0.489799 0.8537
4.15786 -21.4968 508.203 0.136783 -0.517807 0.844492
3.87966 -21.4541 508.244 0.10642 -0.502049 0.858267
3.62662 -21.4447 508.296 0.0999179 -0.527777 0.843485
3.37173 -21.433 508.347 0.107989 -0.566488 0.816964
3.10131 -21.4017 508.392 0.0899489 -0.562716 0.821742
2.84387 -21.3861 508.443 0.0529405 -0.555159 0.830058
2.54794 -21.3225 508.478 0.015551 -0.540083 0.841468
2.26771 -21.2791 508.519 0.0221381 -0.562043 0.826812
2.00425 -21.2572 508.567 0.0118075 -0.596598 0.802453
1.67584 -21.1533 508.589 -0.0513095 -0.536359 0.842429
1.37133 -21.0809 508.621 -0.0543778 -0.516442 0.854594
1.052 -20.9881 508.646 -0.0497146 -0.519226 0.85319
0.719474 -20.88 508.667 -0.0894988 -0.485476 0.869657
0.412711 -20.8023 508.698 -0.152096 -0.531721 0.83315
0.0500972 -20.6593 508.707 -0.168023 -0.507006 0.845407
-0.319052 -20.5061 508.713 -0.16126 -0.468039 0.86887
-0.690378 -20.3505 508.719 -0.234289 -0.495433 0.836454
-1.06996 -20.185 508.721 -0.295945 -0.526562 0.796962
-1.5148 -19.938 508.698 -0.286988 -0.589702 0.75491
-1.84435 -19.8363 508.721 -0.2994 -0.646657 0.701566
-2.24752 -19.6425 508.714 -0.335213 -0.654381 0.677804
-2.6767 -19.4167 508.698 -0.370754 -0.614876 0.696038
-3.15486 -19.13 508.662 -0.405339 -0.586042 0.701609
-3.66207 -18.8077 508.614 -0.414575 -0.570708 0.708815
14.3069 -11.3084 501.066 0.996795 0.0446258 0.0663894
14.3202 -11.6548 501.236 0.987317 0.0182944 0.157703
14.2859 -11.9363 501.385 0.987233 0.00811148 0.159077
14.2704 -12.2431 501.542 0.994792 0.0311488 0.0970539
14.2424 -12.5327 501.692 0.982738 -0.000602639 0.185001
14.2243 -12.835 501.848 0.969481 -0.00577743 0.245097
14.2018 -13.1313 502.002 0.975083 -0.0402262 0.218161
14.1368 -13.3698 502.136 0.957647 -0.0736226 0.278373
6.84421 -21.0342 507.61 0.22796 -0.476894 0.848885
6.61608 -21.0549 507.672 0.247696 -0.595081 0.764543
6.40922 -21.1038 507.742 0.391631 -0.630528 0.670119
6.18415 -21.1288 507.804 0.172408 -0.554951 0.813821
5.89578 -21.0703 507.841 0.149265 -0.500128 0.85299
5.66278 -21.0838 507.901 0.402667 -0.43107 0.807488
5.49416 -21.1811 507.987 0.508243 -0.358793 0.782916
5.32245 -21.2738 508.072 0.4579 -0.400814 0.793521
5.12378 -21.3317 508.147 0.257677 -0.507692 0.822102
4.85618 -21.3032 508.192 0.0813115 -0.529505 0.844401
4.57041 -21.2513 508.23 0.143256 -0.518149 0.843208
4.34115 -21.2711 508.292 0.193589 -0.519198 0.83244
4.08504 -21.257 508.342 0.110484 -0.509394 0.853411
3.82212 -21.2348 508.39 0.128257 -0.538849 0.832582
3.58568 -21.2453 508.449 0.139958 -0.570344 0.809395
3.31418 -21.2123 508.494 0.102826 -0.548026 0.830117
3.05699 -21.1965 508.544 0.0805729 -0.525801 0.846783
2.76205 -21.133 508.579 0.0325526 -0.534471 0.84456
2.48198 -21.0892 508.621 0.0406082 -0.541969 0.839417
2.21855 -21.068 508.669 0.0648577 -0.538275 0.84027
1.92857 -21.0132 508.706 -0.0450439 -0.53016 0.8467
1.58594 -20.8922 508.722 -0.0657055 -0.515851 0.854155
1.30302 -20.8463 508.763 -0.0518268 -0.52165 0.851584
0.971776 -20.7395 508.784 -0.0963034 -0.525436 0.845365
0.656597 -20.6557 508.812 -0.0646568 -0.523789 0.849391
0.356633 -20.586 508.846 -0.18273 -0.54199 0.820278
-0.0967123 -20.3268 508.818 -0.208916 -0.520326 0.828019
-0.403094 -20.2528 508.85 -0.166627 -0.513764 0.841595
-0.776136 -20.0951 508.855 -0.233946 -0.542546 0.806792
-1.17504 -19.9054 508.85 -0.257153 -0.556829 0.789819
-1.51045 -19.7959 508.871 -0.245657 -0.610646 0.752837
-1.89372 -19.6266 508.872 -0.270204 -0.606383 0.747857
-2.32248 -19.4008 508.856 -0.322883 -0.5699 0.75562
-2.7617 -19.1623 508.835 -0.357484 -0.550472 0.754444
-3.2383 -18.8776 508.8 -0.384404 -0.527111 0.757883
-3.72899 -18.5759 508.76 -0.402749 -0.539302 0.739558
14.3112 -11.1624 501.237 0.997463 0.0163691 0.069282
14.3053 -11.4829 501.398 0.99552 -0.00923954 0.0940982
14.2619 -11.7523 501.543 0.992378 0.00856734 0.12293
14.2882 -12.1157 501.718 0.993281 0.0145281 0.114812
14.2503 -12.3919 501.866 0.990511 -0.0664842 0.120284
14.1877 -12.6344 502 0.991636 -0.0330986 0.124753
14.1765 -12.946 502.159 0.959724 -0.0173904 0.280405
14.0899 -13.1555 502.282 0.942016 -0.0942614 0.322058
6.81839 -20.8531 507.768 0.380307 -0.606597 0.698145
6.62179 -20.9138 507.842 0.334924 -0.69546 0.635737
6.40224 -20.9456 507.908 0.207963 -0.650138 0.730802
6.10817 -20.8813 507.942 0.0976665 -0.568998 0.816518
5.86753 -20.8867 507.998 0.164919 -0.545009 0.82205
5.63741 -20.9039 508.06 0.378131 -0.507629 0.774164
5.43975 -20.9639 508.134 0.543982 -0.447163 0.71002
5.26616 -21.0548 508.219 0.501442 -0.469959 0.726426
5.06769 -21.1137 508.293 0.221832 -0.520183 0.824742
4.78276 -21.0622 508.331 0.0834559 -0.539375 0.83792
4.55001 -21.0775 508.391 0.149814 -0.582796 0.798689
4.29454 -21.0636 508.442 0.145684 -0.568596 0.809614
4.02588 -21.0335 508.488 0.141303 -0.561729 0.815165
3.79802 -21.0562 508.55 0.16091 -0.587233 0.793263
3.53035 -21.0272 508.596 0.106648 -0.554944 0.825023
3.25712 -20.9929 508.64 0.07531 -0.528402 0.845648
2.97386 -20.9447 508.68 0.0765838 -0.533296 0.842455
2.72526 -20.9436 508.734 0.0364729 -0.561205 0.826873
2.43032 -20.8799 508.769 0.0364752 -0.564516 0.824616
2.15111 -20.8375 508.811 0.0316735 -0.52646 0.84961
1.84891 -20.7659 508.844 -0.0632837 -0.526022 0.848113
1.53585 -20.6785 508.872 -0.0673517 -0.548209 0.833625
1.22759 -20.6035 508.903 -0.0606028 -0.534686 0.842875
0.903644 -20.506 508.927 -0.0927094 -0.526936 0.844833
0.57993 -20.4097 508.952 -0.0775605 -0.561145 0.824076
0.261621 -20.3193 508.978 -0.204708 -0.537878 0.817791
-0.131428 -20.1356 508.975 -0.218114 -0.541591 0.811853
-0.469229 -20.022 508.994 -0.176451 -0.589119 0.788545
-0.839449 -19.8679 509.001 -0.253201 -0.612032 0.749204
-1.19941 -19.7271 509.012 -0.246785 -0.643644 0.724444
-1.57377 -19.5686 509.017 -0.243537 -0.59763 0.76389
-1.98086 -19.3695 509.009 -0.277166 -0.552644 0.785979
-2.37256 -19.1901 509.008 -0.332853 -0.557395 0.760605
-2.85535 -18.897 508.97 -0.371794 -0.542401 0.753373
-3.33758 -18.6052 508.933 -0.376085 -0.52683 0.76224
14.2403 -11.5714 501.702 0.996812 -0.0134832 0.0786392
14.2319 -11.888 501.862 0.990457 0.0576958 0.125168
14.245 -12.2335 502.031 0.957716 0.00380747 0.28769
14.1631 -12.4495 502.157 0.96936 -0.0806119 0.232043
14.1022 -12.6946 502.294 0.979671 -0.0351221 0.197513
14.1044 -13.0242 502.458 0.962986 -0.0802239 0.257338
6.83306 -20.725 507.943 0.479177 -0.614092 0.627121
6.61506 -20.7561 508.01 0.246001 -0.627676 0.738584
6.33116 -20.7034 508.048 0.0980874 -0.570069 0.815721
6.07986 -20.6974 508.1 0.0893191 -0.562469 0.821979
5.80684 -20.6604 508.143 0.205799 -0.494228 0.844622
5.5858 -20.6903 508.207 0.392406 -0.416345 0.820167
5.41741 -20.788 508.294 0.542696 -0.428935 0.722147
5.24619 -20.8815 508.379 0.428868 -0.502497 0.750712
4.99533 -20.8722 508.432 0.198716 -0.535877 0.820577
4.76139 -20.8888 508.492 0.146171 -0.561523 0.814449
4.50234 -20.8712 508.541 0.136278 -0.558716 0.818086
4.23111 -20.8359 508.586 0.145414 -0.516795 0.843669
4.00924 -20.8656 508.65 0.181854 -0.528267 0.829375
3.74257 -20.8383 508.697 0.118056 -0.535096 0.836502
3.46332 -20.7946 508.738 0.0767153 -0.514241 0.854208
3.19718 -20.7674 508.785 0.0807318 -0.529653 0.844364
2.9393 -20.7532 508.836 0.0983302 -0.537765 0.837341
2.6655 -20.7176 508.88 0.0525854 -0.511385 0.857741
2.36735 -20.6513 508.914 0.0106655 -0.502771 0.864354
2.07657 -20.5926 508.951 0.015198 -0.503177 0.864049
1.78709 -20.543 508.989 -0.0358151 -0.510089 0.859376
1.47167 -20.4529 509.017 -0.0758195 -0.534969 0.841463
1.14647 -20.3535 509.04 -0.0757089 -0.537362 0.839946
0.838531 -20.2762 509.071 -0.0562294 -0.530285 0.845953
0.551321 -20.2255 509.111 -0.124683 -0.570082 0.812072
0.163127 -20.0475 509.109 -0.220922 -0.580641 0.783613
-0.200398 -19.901 509.118 -0.195216 -0.597838 0.777483
-0.516268 -19.8151 509.147 -0.174319 -0.638711 0.74944
-0.847994 -19.7095 509.169 -0.225341 -0.612784 0.757441
-1.23929 -19.5292 509.167 -0.264522 -0.593178 0.760373
-1.65573 -19.3178 509.155 -0.275453 -0.577354 0.768627
-2.03877 -19.1489 509.157 -0.277615 -0.557636 0.782286
-2.46446 -18.9269 509.143 -0.345268 -0.556422 0.755767
-2.94259 -18.6396 509.107 -0.38006 -0.536514 0.753464
-3.4185 -18.3557 509.073 -0.38128 -0.538194 0.751647
14.2546 -11.4392 501.877 0.988529 -0.0557912 0.14035
14.172 -11.6554 502.004 0.994888 -0.00100145 0.100981
14.1852 -12.001 502.173 0.985661 0.0208587 0.167441
14.1616 -12.2965 502.326 0.956403 -0.0586954 0.286092
14.1018 -12.5429 502.463 0.983007 -0.0519807 0.176056
14.0583 -12.8113 502.608 0.969774 -0.0266601 0.242545
6.97055 -20.4405 508.013 0.719451 -0.336942 0.607339
6.80301 -20.5385 508.1 0.39557 -0.450947 0.800107
6.5416 -20.5161 508.148 0.14863 -0.533983 0.832329
6.29784 -20.5164 508.203 0.0898315 -0.558615 0.824548
6.01652 -20.4734 508.242 0.0553584 -0.529745 0.846348
5.72257 -20.4046 508.277 0.198686 -0.464297 0.863106
5.53831 -20.4818 508.357 0.493635 -0.401723 0.771326
5.36926 -20.5787 508.444 0.559447 -0.390074 0.731342
5.18311 -20.6536 508.523 0.368993 -0.469953 0.801866
4.95508 -20.6737 508.585 0.21151 -0.557348 0.802886
4.71205 -20.6769 508.641 0.142689 -0.546535 0.825191
4.43071 -20.6312 508.681 0.100489 -0.510555 0.853953
4.18085 -20.6251 508.735 0.17356 -0.495001 0.851382
3.92875 -20.6155 508.787 0.175301 -0.490835 0.853434
3.67414 -20.6036 508.839 0.0874745 -0.508493 0.856611
3.39798 -20.5645 508.881 0.0959657 -0.512304 0.853425
3.15189 -20.5638 508.937 0.0949442 -0.528086 0.843867
2.85501 -20.4987 508.971 0.0597696 -0.517622 0.853519
2.57751 -20.4586 509.014 0.0383298 -0.484465 0.873971
2.28863 -20.4042 509.052 0.0135392 -0.497928 0.867113
2.00456 -20.3545 509.092 0.00140634 -0.535655 0.844436
1.70036 -20.2828 509.124 -0.0256193 -0.539204 0.841786
1.40918 -20.2262 509.162 -0.0763524 -0.544346 0.835379
1.08179 -20.1241 509.185 -0.0930739 -0.577218 0.811269
0.773137 -20.046 509.216 -0.0441651 -0.59818 0.800144
0.474809 -19.9813 509.251 -0.127262 -0.584966 0.801011
0.134539 -19.8638 509.269 -0.216467 -0.609527 0.762639
-0.209229 -19.7423 509.286 -0.181564 -0.663354 0.725945
-0.537084 -19.6412 509.309 -0.202485 -0.644515 0.737292
-0.955854 -19.4259 509.297 -0.234918 -0.592393 0.770638
-1.29974 -19.3054 509.314 -0.26504 -0.564084 0.782025
-1.71845 -19.0911 509.302 -0.284914 -0.562051 0.776481
-2.1176 -18.9019 509.298 -0.286444 -0.56906 0.770792
-2.52571 -18.702 509.29 -0.363719 -0.560548 0.743972
-3.03979 -18.3695 509.24 -0.387188 -0.552212 0.738341
-3.48805 -18.1203 509.217 -0.378117 -0.561529 0.736011
14.2117 -11.2293 502.027 0.976511 -0.026053 0.213887
14.1954 -11.5356 502.184 0.993173 -0.0503903 0.105205
14.1595 -11.8148 502.331 0.99728 -0.0512296 0.0529866
14.1126 -12.0789 502.473 0.981108 -0.0525699 0.186183
14.0751 -12.3556 502.62 0.964616 -0.0663389 0.255178
13.9986 -12.5792 502.748 0.970294 -0.037841 0.238953
7.06208 -20.0963 508.063 0.699032 -0.303416 0.647529
6.8974 -20.1962 508.15 0.644004 -0.362278 0.673805
6.72826 -20.2948 508.238 0.393866 -0.399279 0.827917
6.51075 -20.3267 508.304 0.16775 -0.494775 0.852677
6.23694 -20.2917 508.345 0.0504819 -0.545236 0.836761
5.93404 -20.2159 508.377 0.0285127 -0.524051 0.85121
5.68309 -20.2073 508.43 0.257821 -0.527296 0.809622
5.49426 -20.2784 508.509 0.533339 -0.487037 0.691625
5.31447 -20.36 508.59 0.55742 -0.462343 0.689581
5.14518 -20.4575 508.677 0.414685 -0.481749 0.771981
4.92387 -20.4875 508.742 0.182373 -0.518063 0.835674
4.63235 -20.4269 508.778 0.093341 -0.519636 0.849273
4.38141 -20.4192 508.831 0.104221 -0.516978 0.849631
4.10583 -20.381 508.874 0.166861 -0.51165 0.842836
3.88297 -20.4096 508.938 0.166146 -0.499868 0.850016
3.60993 -20.3735 508.982 0.092504 -0.517564 0.850629
3.34324 -20.3472 509.029 0.111257 -0.526499 0.842864
3.081 -20.3254 509.078 0.076115 -0.514296 0.854228
2.79755 -20.2773 509.118 0.0125194 -0.532099 0.84659
2.5014 -20.2151 509.153 0.0333884 -0.538702 0.841834
2.23336 -20.1877 509.2 0.0408708 -0.547234 0.835981
1.95553 -20.1464 509.243 -0.0138265 -0.582793 0.812503
1.65285 -20.075 509.276 -0.0494613 -0.603439 0.795873
1.34648 -19.9992 509.307 -0.059845 -0.594341 0.801983
1.05127 -19.9379 509.343 -0.0648545 -0.57398 0.816297
0.747145 -19.8656 509.376 -0.0697413 -0.601739 0.795642
0.426851 -19.773 509.402 -0.113731 -0.606485 0.786918
0.0999704 -19.6725 509.426 -0.163094 -0.600232 0.783021
-0.248046 -19.5456 509.441 -0.176476 -0.605922 0.775703
-0.605542 -19.4071 509.453 -0.221185 -0.574004 0.788414
-0.975452 -19.2534 509.46 -0.250357 -0.56746 0.784417
-1.379 -19.0577 509.454 -0.269548 -0.568243 0.777459
-1.78939 -18.8539 509.445 -0.27824 -0.560163 0.780257
-2.16655 -18.6924 509.45 -0.291086 -0.560442 0.775354
-2.61845 -18.4374 509.425 -0.365979 -0.552751 0.748683
-3.09007 -18.1583 509.392 -0.382238 -0.555108 0.738748
-3.55242 -17.8914 509.364 -0.388406 -0.552064 0.737812
14.199 -11.0603 502.191 0.981965 0.0324881 0.18625
14.1911 -11.378 502.351 0.984542 0.0158576 0.174429
14.1617 -11.6663 502.501 0.980661 -0.0559165 0.187558
14.1022 -11.9135 502.638 0.979112 -0.0865777 0.183968
14.048 -12.1676 502.776 0.971111 -0.100207 0.216571
13.9898 -12.4161 502.913 0.974264 -0.100287 0.201872
7.0322 -19.9099 508.22 0.723989 -0.310339 0.616061
6.86528 -20.0082 508.307 0.52779 -0.388389 0.755375
6.64938 -20.046 508.374 0.410253 -0.376143 0.830788
6.4498 -20.1014 508.448 0.202305 -0.434508 0.877653
6.16877 -20.0514 508.489 0.0283554 -0.517338 0.855311
5.89498 -20.0168 508.531 0.103418 -0.474303 0.874266
5.65944 -20.0282 508.59 0.340131 -0.436698 0.83283
5.47616 -20.1069 508.67 0.514798 -0.451169 0.728992
5.29602 -20.1896 508.752 0.496981 -0.464008 0.733285
5.07939 -20.2256 508.819 0.356772 -0.471894 0.806244
4.83914 -20.2313 508.876 0.16315 -0.468574 0.868229
4.58433 -20.2186 508.928 0.103666 -0.468488 0.877366
4.31509 -20.1876 508.973 0.125286 -0.47137 0.872992
4.06531 -20.1816 509.027 0.153951 -0.502833 0.850564
3.79938 -20.1557 509.074 0.161187 -0.516564 0.84094
3.55535 -20.1578 509.13 0.106869 -0.524799 0.844491
3.28301 -20.1244 509.175 0.0848682 -0.535582 0.840208
3.00899 -20.0874 509.219 0.0750821 -0.537197 0.840108
2.74435 -20.0629 509.267 0.0116636 -0.579939 0.814577
2.44758 -19.9983 509.302 0.0287554 -0.601203 0.798579
2.18949 -19.9832 509.352 0.0584645 -0.599824 0.797993
1.90405 -19.9334 509.392 0.00154242 -0.592135 0.805837
1.62113 -19.8859 509.433 -0.0577914 -0.595167 0.801521
1.29636 -19.7881 509.457 -0.0880821 -0.61257 0.785493
0.974517 -19.693 509.483 -0.0428331 -0.596414 0.801533
0.694618 -19.6514 509.526 -0.0599048 -0.574282 0.816463
0.368126 -19.5511 509.549 -0.102908 -0.548887 0.829538
0.0424395 -19.4521 509.574 -0.133924 -0.537029 0.832865
-0.309194 -19.3207 509.588 -0.190886 -0.560637 0.80576
-0.68206 -19.1628 509.594 -0.229293 -0.575145 0.78526
-1.07019 -18.9861 509.594 -0.24864 -0.563254 0.787987
-1.44577 -18.8257 509.599 -0.269137 -0.551731 0.789403
-1.84886 -18.6311 509.593 -0.28179 -0.567101 0.773945
-2.26511 -18.4204 509.582 -0.295176 -0.550663 0.780795
-2.67726 -18.2154 509.574 -0.35938 -0.54322 0.758787
-3.18328 -17.893 509.528 -0.380268 -0.547192 0.745639
-3.64771 -17.6235 509.499 -0.399948 -0.522937 0.752714
14.1414 -10.8302 502.334 0.991082 0.0208879 0.131609
14.1432 -11.1614 502.498 0.993357 0.0189467 0.113502
14.1302 -11.4721 502.656 0.978255 -0.0247605 0.205921
14.0808 -11.7331 502.797 0.958719 -0.0411994 0.281356
14.0357 -11.9996 502.94 0.962936 -0.0639551 0.262037
13.975 -12.2448 503.076 0.96266 -0.128703 0.238161
6.95899 -19.6666 508.358 0.692707 -0.402138 0.5987
6.79023 -19.7645 508.445 0.443101 -0.437619 0.7824
6.55965 -19.7821 508.506 0.380965 -0.438107 0.814204
6.37936 -19.8637 508.588 0.245198 -0.453367 0.856934
6.10744 -19.8264 508.632 0.0154539 -0.470287 0.882378
5.774 -19.7133 508.65 0.155912 -0.437835 0.885433
5.59799 -19.8014 508.734 0.449627 -0.412566 0.792228
5.417 -19.8832 508.815 0.5135 -0.405851 0.756044
5.23168 -19.9594 508.895 0.427509 -0.433079 0.793523
5.02018 -20.002 508.964 0.26479 -0.486697 0.832473
4.77025 -19.9954 509.018 0.137679 -0.492074 0.859598
4.48619 -19.9453 509.057 0.111325 -0.484488 0.867686
4.23751 -19.9412 509.111 0.166989 -0.505829 0.846316
4.00419 -19.9554 509.172 0.169725 -0.52154 0.836175
3.7568 -19.9514 509.226 0.150709 -0.536585 0.830279
3.50103 -19.9398 509.278 0.10926 -0.546868 0.830059
3.22308 -19.897 509.32 0.0817792 -0.54663 0.833371
2.97078 -19.8905 509.373 0.103581 -0.57437 0.812016
2.7108 -19.8724 509.423 0.0303782 -0.610715 0.791268
2.41914 -19.8145 509.46 0.0280723 -0.617805 0.78583
2.151 -19.7866 509.507 0.0418089 -0.58918 0.806919
1.85283 -19.722 509.542 -0.000235344 -0.579245 0.815153
1.56362 -19.6665 509.581 -0.0379445 -0.581824 0.812429
1.26232 -19.5973 509.614 -0.0974623 -0.605968 0.789496
0.947085 -19.5106 509.643 -0.0710529 -0.603046 0.794536
0.63181 -19.4242 509.671 -0.0925795 -0.572058 0.814972
0.27976 -19.2915 509.685 -0.125695 -0.56489 0.815537
-0.0398591 -19.2003 509.712 -0.123484 -0.555209 0.822493
-0.370218 -19.0958 509.735 -0.168162 -0.532351 0.829653
-0.727389 -18.9577 509.747 -0.223126 -0.534614 0.815109
-1.12019 -18.7751 509.745 -0.265002 -0.574163 0.774669
-1.52448 -18.5785 509.739 -0.262558 -0.565015 0.78219
-1.9082 -18.4083 509.741 -0.288893 -0.551877 0.782287
-2.34486 -18.1719 509.723 -0.310941 -0.56414 0.764893
-2.7602 -17.9629 509.713 -0.354842 -0.539399 0.763634
-3.26175 -17.6461 509.669 -0.392195 -0.535711 0.747794
14.1527 -9.70482 502.017 0.975851 -0.000819499 0.218437
14.146 -10.0257 502.178 0.997612 0.0259103 0.0640273
14.1606 -10.3752 502.348 0.996405 0.0231743 0.0814925
14.1479 -10.6871 502.506 0.994272 0.0179637 0.105358
14.1555 -11.0263 502.673 0.989842 0.011736 0.141686
14.0846 -11.2587 502.805 0.963656 -0.023609 0.266101
14.0344 -11.5192 502.945 0.973637 -0.0468668 0.223236
13.9972 -11.7961 503.092 0.977921 -0.040973 0.204918
13.9737 -12.0918 503.244 0.945958 -0.0482475 0.320681
6.93504 -19.4878 508.518 0.577127 -0.48444 0.657451
6.75911 -19.5765 508.602 0.412752 -0.509196 0.755219
6.52718 -19.5944 508.662 0.332905 -0.504804 0.796459
6.30778 -19.6237 508.727 0.1709 -0.491911 0.853708
5.98508 -19.5249 508.75 0.0191673 -0.488857 0.872153
5.7634 -19.5515 508.815 0.244779 -0.572963 0.782174
5.56677 -19.6144 508.89 0.492017 -0.571525 0.656717
5.36601 -19.6699 508.964 0.505017 -0.488536 0.711541
5.19071 -19.759 509.048 0.417654 -0.486767 0.767218
4.95957 -19.7765 509.109 0.220319 -0.503213 0.835605
4.69803 -19.7551 509.158 0.115291 -0.516666 0.848389
4.44707 -19.7473 509.211 0.142936 -0.5523 0.8213
4.21468 -19.7638 509.272 0.176781 -0.574588 0.799123
3.94505 -19.7325 509.317 0.1732 -0.577793 0.797594
3.7092 -19.7447 509.377 0.147341 -0.557394 0.81707
3.43521 -19.7084 509.421 0.0991197 -0.559714 0.822736
3.18593 -19.7038 509.475 0.113831 -0.574488 0.810559
2.92399 -19.6832 509.525 0.131584 -0.576626 0.806343
2.67182 -19.6753 509.578 0.043876 -0.58808 0.807612
2.3695 -19.6036 509.611 0.00714655 -0.587535 0.809167
2.0868 -19.5572 509.652 0.0289339 -0.565359 0.824337
1.80611 -19.5137 509.694 0.000398522 -0.564797 0.825229
1.51346 -19.4551 509.731 -0.0186033 -0.582519 0.812604
1.2202 -19.3961 509.768 -0.0858075 -0.570896 0.816526
0.866579 -19.2607 509.781 -0.0922873 -0.563683 0.82082
0.574335 -19.2036 509.819 -0.109579 -0.587092 0.80207
0.24417 -19.0986 509.842 -0.155167 -0.617793 0.770879
-0.0919289 -18.9866 509.862 -0.165492 -0.58765 0.79201
-0.477552 -18.8122 509.863 -0.179231 -0.547631 0.817298
-0.825221 -18.6862 509.879 -0.188197 -0.532696 0.825116
-1.17631 -18.5563 509.895 -0.257917 -0.542177 0.799702
-1.60553 -18.3283 509.879 -0.273144 -0.56029 0.781964
-1.98254 -18.1665 509.884 -0.283119 -0.559881 0.778702
-2.4041 -17.9492 509.871 -0.332925 -0.564371 0.755411
-2.86664 -17.6807 509.843 -0.365887 -0.552774 0.74871
-3.33571 -17.4047 509.812 -0.384438 -0.532094 0.754376
14.1548 -9.5554 502.187 0.993722 0.0110798 0.111325
14.15 -9.87898 502.349 0.99781 0.0183166 0.0635667
14.1295 -10.1808 502.504 0.991706 0.0352518 0.123596
14.1136 -10.4887 502.66 0.992398 0.0115022 0.12253
14.0715 -10.7605 502.805 0.98652 -0.0220938 0.162146
14.0528 -11.0643 502.961 0.973503 -0.00414242 0.228635
14.05 -11.3877 503.122 0.966716 -0.0218612 0.254918
13.9652 -11.6013 503.247 0.968681 -0.0941208 0.229781
13.8828 -11.8175 503.373 0.969708 -0.0595602 0.236895
6.90759 -19.3051 508.676 0.503135 -0.411039 0.760199
6.69024 -19.3372 508.743 0.369429 -0.483933 0.793304
6.47755 -19.3807 508.811 0.248276 -0.521417 0.816384
6.21365 -19.3545 508.858 0.113447 -0.506858 0.854532
5.97321 -19.3595 508.915 0.163421 -0.527654 0.833592
5.76054 -19.3994 508.984 0.348971 -0.513665 0.783816
5.53986 -19.431 509.049 0.395556 -0.460766 0.7945
5.33914 -19.4875 509.123 0.452205 -0.467928 0.759312
5.13804 -19.5436 509.196 0.347035 -0.491043 0.799027
4.89076 -19.5404 509.251 0.200183 -0.504354 0.839972
4.65926 -19.5576 509.312 0.161556 -0.539234 0.826515
4.40214 -19.5421 509.363 0.177581 -0.560967 0.808567
4.15731 -19.543 509.418 0.181486 -0.561991 0.806987
3.92199 -19.555 509.478 0.138972 -0.590234 0.795179
3.64816 -19.5191 509.522 0.129633 -0.595388 0.792912
3.40936 -19.5271 509.581 0.11625 -0.57794 0.807757
3.13333 -19.489 509.624 0.122659 -0.565018 0.81591
2.88505 -19.4858 509.679 0.128374 -0.558172 0.819734
2.61581 -19.4556 509.725 0.0468638 -0.546737 0.835992
2.32559 -19.4 509.764 -0.0038936 -0.555922 0.831225
2.03366 -19.3419 509.801 0.0141013 -0.596952 0.802153
1.75287 -19.2982 509.843 0.00972222 -0.590682 0.806846
1.4636 -19.244 509.882 -0.0364626 -0.565211 0.82414
1.13465 -19.1397 509.905 -0.0837199 -0.540827 0.836957
0.835681 -19.0737 509.94 -0.0742895 -0.576837 0.813474
0.532572 -19.0028 509.973 -0.0843575 -0.598893 0.796374
0.205631 -18.902 509.998 -0.163284 -0.563181 0.810041
-0.183354 -18.7229 509.997 -0.188225 -0.547553 0.815326
-0.507694 -18.6261 510.023 -0.199522 -0.559854 0.80421
-0.897552 -18.4468 510.022 -0.203862 -0.573804 0.793215
-1.25563 -18.3081 510.035 -0.253182 -0.564646 0.785541
-1.66456 -18.1057 510.027 -0.279679 -0.572526 0.77071
-2.04621 -17.9381 510.03 -0.280559 -0.559838 0.779659
-2.48017 -17.7051 510.013 -0.328105 -0.535781 0.778001
-2.92461 -17.4594 509.992 -0.383106 -0.55555 0.737966
-3.44748 -17.1157 509.94 -0.388478 -0.553829 0.73645
14.1373 -9.37914 502.349 0.995551 0.0218515 0.0916527
14.1071 -9.66832 502.5 0.992283 0.00752647 0.123765
14.0941 -9.98051 502.657 0.994204 0.0377109 0.100677
14.1271 -10.355 502.836 0.990796 0.0164008 0.134364
14.0875 -10.6305 502.982 0.983047 -0.0709789 0.169058
14.0113 -10.8558 503.111 0.982593 -0.0315467 0.183075
13.9643 -11.12 503.251 0.969758 0.0306537 0.242135
13.9854 -11.4773 503.425 0.938912 -0.0570682 0.339392
13.8779 -11.6595 503.54 0.962878 -0.109402 0.246773
6.8366 -19.0653 508.816 0.506155 -0.333006 0.795559
6.6678 -19.162 508.902 0.362432 -0.401776 0.840963
6.42605 -19.1644 508.959 0.191203 -0.450393 0.872116
6.15997 -19.1406 509.005 0.151708 -0.510905 0.846145
5.91993 -19.1428 509.063 0.211757 -0.542292 0.813067
5.6585 -19.1208 509.111 0.307024 -0.503847 0.807388
5.46889 -19.1922 509.19 0.433197 -0.439036 0.787139
5.28945 -19.2755 509.272 0.425026 -0.442451 0.789677
5.07435 -19.3138 509.34 0.300896 -0.494948 0.815162
4.84766 -19.3372 509.403 0.229243 -0.510427 0.828802
4.60634 -19.3418 509.46 0.193966 -0.527729 0.82697
4.3615 -19.3414 509.516 0.180377 -0.55865 0.809552
4.12447 -19.353 509.575 0.199301 -0.594636 0.778901
3.87754 -19.3505 509.63 0.145525 -0.575399 0.804822
3.62214 -19.3379 509.682 0.112868 -0.561077 0.820032
3.34624 -19.2991 509.725 0.108657 -0.549602 0.82833
3.08627 -19.281 509.776 0.120035 -0.545164 0.829691
2.82872 -19.2661 509.827 0.0956707 -0.547916 0.831045
2.53999 -19.2103 509.865 0.0499313 -0.53188 0.845346
2.27336 -19.1852 509.913 0.0460079 -0.550421 0.833619
2.006 -19.1589 509.961 0.014656 -0.56697 0.823608
1.70127 -19.0848 509.993 -0.0193775 -0.566308 0.823966
1.39267 -19.006 510.024 -0.0755842 -0.578918 0.811875
1.07268 -18.9131 510.051 -0.0557988 -0.575398 0.815967
0.795527 -18.8749 510.095 -0.0510565 -0.573578 0.817558
0.453547 -18.7547 510.113 -0.115903 -0.558204 0.821568
0.111809 -18.6351 510.131 -0.170328 -0.536844 0.826309
-0.241786 -18.501 510.145 -0.183355 -0.561366 0.807
-0.592799 -18.3704 510.16 -0.192695 -0.574062 0.795815
-0.95413 -18.2272 510.171 -0.209017 -0.558425 0.802791
-1.31266 -18.088 510.184 -0.241901 -0.552936 0.797336
-1.72332 -17.8833 510.176 -0.279673 -0.550032 0.786923
-2.14287 -17.6679 510.164 -0.295348 -0.542329 0.786543
-2.57603 -17.436 510.148 -0.314413 -0.537834 0.782227
-2.98871 -17.2303 510.139 -0.376189 -0.540206 0.752768
-3.51258 -16.8853 510.087 -0.416554 -0.553149 0.721463
14.1105 -9.19007 502.507 0.992848 0.0261994 0.116479
14.109 -9.51852 502.67 0.993504 -0.00365711 0.113742
14.0781 -9.80661 502.82 0.998682 0.00806534 0.0506915
14.0667 -10.1208 502.978 0.991903 0.0388542 0.120911
14.0566 -10.4364 503.137 0.949936 -0.0240126 0.311521
13.973 -10.6517 503.263 0.955063 -0.054759 0.291301
13.9542 -10.9551 503.418 0.982217 0.0086952 0.187546
13.8928 -11.2013 503.556 0.954241 0.0101225 0.298867
13.8717 -11.4995 503.706 0.935809 -0.0947603 0.339533
6.77291 -18.8338 508.958 0.518617 -0.405024 0.752989
6.55456 -18.8683 509.025 0.342943 -0.451142 0.82393
6.32739 -18.8877 509.088 0.248264 -0.501505 0.828769
6.13174 -18.9529 509.163 0.202795 -0.548563 0.811143
5.86989 -18.931 509.212 0.199403 -0.555943 0.806948
5.66967 -18.9867 509.286 0.281612 -0.605793 0.744117
5.42288 -18.9847 509.34 0.438197 -0.571679 0.693662
5.24792 -19.0743 509.425 0.433231 -0.511198 0.742286
5.0241 -19.1013 509.489 0.287635 -0.54658 0.786458
4.79141 -19.117 509.55 0.235133 -0.53669 0.810355
4.55199 -19.1241 509.608 0.226595 -0.533017 0.815198
4.33027 -19.1538 509.673 0.230541 -0.551295 0.801826
4.09025 -19.1609 509.731 0.166893 -0.556326 0.814032
3.81775 -19.1262 509.776 0.128286 -0.530058 0.838201
3.55707 -19.1083 509.826 0.107552 -0.516189 0.849695
3.29115 -19.0808 509.873 0.107392 -0.545886 0.830948
3.04043 -19.075 509.927 0.115099 -0.552239 0.825702
2.76275 -19.0353 509.971 0.0625638 -0.558642 0.827046
2.49223 -19.0032 510.017 0.0583393 -0.58217 0.810971
2.22439 -18.9753 510.064 0.055557 -0.561265 0.82577
1.92256 -18.9047 510.098 0.0185594 -0.526246 0.85013
1.64345 -18.8633 510.141 -0.00378712 -0.530177 0.847879
1.35791 -18.8138 510.181 -0.0705357 -0.561084 0.824748
1.0235 -18.7027 510.202 -0.0517224 -0.558913 0.827611
0.727893 -18.6411 510.239 -0.0669749 -0.542781 0.8372
0.388425 -18.5241 510.258 -0.142344 -0.550794 0.822414
0.0544818 -18.4145 510.28 -0.157571 -0.561273 0.812492
-0.292037 -18.2892 510.297 -0.179471 -0.579824 0.794729
-0.641036 -18.1613 510.313 -0.213008 -0.584328 0.783063
-1.03391 -17.9782 510.311 -0.211616 -0.546497 0.810284
-1.40372 -17.8247 510.319 -0.231723 -0.51911 0.822697
-1.81206 -17.623 510.312 -0.274136 -0.522939 0.807084
-2.2121 -17.4323 510.309 -0.294858 -0.531363 0.794174
-2.64048 -17.2063 510.294 -0.319083 -0.545485 0.775005
-3.09374 -16.9495 510.27 -0.356036 -0.520042 0.776399
-3.57839 -16.6538 510.234 -0.411107 -0.525255 0.745049
14.0837 -9.00095 502.665 0.997719 0.0181497 0.0650107
14.0894 -9.3394 502.831 0.995607 0.0127424 0.0927631
14.0729 -9.64725 502.987 0.99375 -0.018024 0.110162
14.0418 -9.93483 503.137 0.993755 -0.0252621 0.108691
13.9976 -10.2042 503.28 0.977623 -0.0507501 0.20415
13.9598 -10.482 503.426 0.969363 -0.0693118 0.235653
13.8904 -10.7167 503.559 0.977888 -0.0506709 0.2029
13.8639 -11.01 503.711 0.985724 -0.0114349 0.16798
13.8578 -11.3281 503.866 0.968673 -0.0436669 0.244468
6.73706 -18.6394 509.113 0.480301 -0.440014 0.758748
6.53709 -18.6977 509.188 0.365374 -0.49631 0.787514
6.34252 -18.7605 509.263 0.286865 -0.57103 0.769177
6.06505 -18.7169 509.306 0.206329 -0.585206 0.784195
5.842 -18.7461 509.37 0.285664 -0.562153 0.776131
5.62926 -18.7868 509.439 0.305333 -0.593499 0.744668
5.40737 -18.8164 509.504 0.360112 -0.574012 0.735411
5.2065 -18.873 509.578 0.410657 -0.525592 0.74506
4.99649 -18.9178 509.648 0.256606 -0.534685 0.805149
4.73984 -18.9027 509.699 0.228689 -0.526995 0.818522
4.5221 -18.9378 509.766 0.250753 -0.527502 0.811705
4.27203 -18.9315 509.82 0.219328 -0.521495 0.824584
4.02824 -18.9334 509.876 0.133083 -0.507124 0.851537
3.75079 -18.8911 509.919 0.106511 -0.526872 0.843244
3.50397 -18.891 509.975 0.136447 -0.54931 0.824403
3.25148 -18.882 510.028 0.113866 -0.560966 0.819971
2.97672 -18.8452 510.072 0.107417 -0.560686 0.821032
2.72811 -18.8416 510.127 0.0854093 -0.57316 0.81498
2.45486 -18.8072 510.172 0.0350849 -0.578475 0.814945
2.14782 -18.7297 510.204 0.0116271 -0.545161 0.838251
1.87054 -18.6901 510.248 0.018934 -0.521736 0.852897
1.57443 -18.6276 510.284 0.0157912 -0.53885 0.842254
1.28151 -18.5687 510.322 -0.0634801 -0.541904 0.838039
0.946259 -18.4565 510.342 -0.0656679 -0.541526 0.838115
0.659083 -18.4056 510.383 -0.0748907 -0.556389 0.82754
0.322197 -18.292 510.403 -0.130824 -0.543196 0.829351
-0.0123333 -18.1816 510.425 -0.133448 -0.541064 0.830326
-0.348868 -18.0691 510.446 -0.170675 -0.563907 0.80801
-0.713821 -17.9209 510.455 -0.236624 -0.561002 0.793276
-1.12315 -17.717 510.448 -0.243413 -0.556365 0.794486
-1.48663 -17.5716 510.458 -0.244635 -0.544358 0.802389
-1.89613 -17.3684 510.451 -0.277638 -0.541495 0.793536
-2.30541 -17.1661 510.444 -0.295188 -0.55332 0.77891
-2.72487 -16.9514 510.434 -0.340707 -0.543165 0.767392
-3.2139 -16.6495 510.395 -0.354572 -0.519296 0.777567
-3.65919 -16.4034 510.375 -0.393479 -0.523213 0.755925
14.0817 -8.84566 502.834 0.996019 0.0181137 0.0872781
14.0684 -9.15834 502.991 0.995979 0.0179076 0.0877777
14.059 -9.47597 503.151 0.989286 0.00543017 0.145891
14.0317 -9.7688 503.302 0.982223 -0.021632 0.186467
13.997 -10.0514 503.45 0.981946 -0.073993 0.174089
13.9318 -10.292 503.584 0.981359 -0.103639 0.161846
13.9016 -10.5801 503.733 0.985274 -0.0886548 0.146207
13.8466 -10.8341 503.871 0.989477 -0.0506224 0.135543
13.7971 -11.0946 504.01 0.961938 -0.0103828 0.27307
6.67876 -18.4164 509.259 0.484454 -0.402422 0.776763
6.46812 -18.4598 509.329 0.417613 -0.37821 0.82617
6.27592 -18.5271 509.406 0.284809 -0.456144 0.843099
6.03786 -18.5352 509.464 0.211197 -0.54125 0.813907
5.81848 -18.5676 509.53 0.332564 -0.554997 0.762482
5.60906 -18.613 509.601 0.303655 -0.585816 0.751407
5.36923 -18.6196 509.658 0.322983 -0.581018 0.747061
5.16136 -18.6667 509.729 0.353236 -0.523891 0.775089
4.92949 -18.6835 509.79 0.239619 -0.506694 0.828157
4.68883 -18.689 509.848 0.236465 -0.535515 0.810746
4.46407 -18.7152 509.912 0.229632 -0.546764 0.805182
4.21187 -18.7062 509.965 0.169352 -0.535899 0.827123
3.96109 -18.6993 510.019 0.141946 -0.545296 0.826138
3.71376 -18.6963 510.074 0.135458 -0.558638 0.818275
3.46039 -18.6876 510.127 0.141409 -0.564968 0.812905
3.19405 -18.6592 510.175 0.112865 -0.556112 0.823408
2.94131 -18.6519 510.228 0.116214 -0.56307 0.818197
2.67375 -18.6244 510.276 0.0845458 -0.555553 0.827172
2.38803 -18.5739 510.316 0.00205682 -0.546638 0.837366
2.0895 -18.5076 510.351 -0.0162633 -0.558358 0.82944
1.79185 -18.44 510.387 0.0313903 -0.544688 0.838051
1.52863 -18.421 510.436 -0.00144902 -0.552675 0.833395
1.21038 -18.3301 510.464 -0.0697052 -0.55831 0.826699
0.9071 -18.2586 510.498 -0.0624828 -0.575307 0.815548
0.597945 -18.1799 510.529 -0.105517 -0.578781 0.808628
0.241394 -18.0412 510.542 -0.13574 -0.549523 0.824378
-0.079868 -17.9478 510.569 -0.115612 -0.543337 0.831516
-0.412071 -17.8408 510.592 -0.173148 -0.549177 0.817572
-0.789782 -17.6765 510.597 -0.237031 -0.551749 0.799618
-1.1635 -17.5176 510.604 -0.259991 -0.569342 0.779906
-1.57457 -17.312 510.596 -0.265009 -0.57734 0.772301
-1.95314 -17.148 510.601 -0.281677 -0.569277 0.772387
-2.36358 -16.9441 510.594 -0.319832 -0.58189 0.747737
-2.80792 -16.698 510.573 -0.380345 -0.58273 0.718166
-3.30212 -16.3896 510.533 -0.38153 -0.571847 0.726241
-3.7449 -16.1467 510.514 -0.404152 -0.557772 0.72495
14.0493 -8.3174 502.825 0.991868 0.0454131 0.118889
14.0602 -8.66372 502.994 0.991215 0.0378539 0.126727
14.043 -8.97121 503.15 0.99165 0.0156355 0.128005
14.0215 -9.27252 503.304 0.987564 0.00621454 0.157098
13.9897 -9.55938 503.453 0.981727 0.0173542 0.189501
13.9868 -9.8853 503.615 0.974595 -0.0221172 0.22288
13.9314 -10.1395 503.753 0.975232 -0.0776154 0.207117
13.88 -10.3988 503.893 0.977436 -0.078429 0.196133
13.8195 -10.6455 504.029 0.964509 -0.108886 0.240555
13.7392 -10.8652 504.156 0.976332 -0.0845665 0.199057
6.60248 -18.1692 509.397 0.416425 -0.44447 0.793118
6.40184 -18.2257 509.471 0.451431 -0.409037 0.793031
6.23039 -18.3199 509.557 0.362994 -0.442527 0.820003
5.9898 -18.3249 509.614 0.27055 -0.551497 0.789084
5.77785 -18.3669 509.684 0.358839 -0.579473 0.731741
5.57392 -18.4191 509.756 0.305205 -0.585241 0.751228
5.34386 -18.4388 509.818 0.267583 -0.560796 0.783522
5.10876 -18.4508 509.878 0.283704 -0.512538 0.810442
4.88035 -18.4721 509.941 0.273875 -0.507002 0.817277
4.66933 -18.5159 510.01 0.249049 -0.522657 0.815356
4.41466 -18.5036 510.062 0.196133 -0.545208 0.815034
4.17365 -18.509 510.12 0.168527 -0.559496 0.811519
3.92292 -18.5022 510.174 0.152868 -0.563173 0.812076
3.66417 -18.4845 510.225 0.144032 -0.561519 0.814832
3.40651 -18.4699 510.276 0.125909 -0.550904 0.825016
3.14811 -18.4543 510.327 0.125771 -0.536328 0.834586
2.88736 -18.4343 510.377 0.105592 -0.532021 0.840121
2.60869 -18.3932 510.42 0.058444 -0.538943 0.840313
2.33492 -18.358 510.466 0.00910318 -0.555173 0.831685
2.03727 -18.2946 510.501 -0.0227494 -0.563489 0.825811
1.74417 -18.2332 510.539 0.0228939 -0.584269 0.811237
1.46675 -18.1941 510.583 -0.015572 -0.578871 0.815271
1.14749 -18.1019 510.61 -0.0454499 -0.541632 0.839386
0.861679 -18.0526 510.651 -0.0571514 -0.553211 0.831079
0.522149 -17.9353 510.671 -0.137667 -0.574825 0.806613
0.190315 -17.8281 510.693 -0.152006 -0.583009 0.798119
-0.154887 -17.7043 510.711 -0.127029 -0.568994 0.812471
-0.484089 -17.6012 510.735 -0.173259 -0.540055 0.823603
-0.863485 -17.4347 510.74 -0.215778 -0.536689 0.815724
-1.23122 -17.2835 510.749 -0.246088 -0.553793 0.795458
-1.62344 -17.1018 510.749 -0.269126 -0.570068 0.776269
-2.02029 -16.9146 510.747 -0.273878 -0.575309 0.770721
-2.42036 -16.7238 510.744 -0.309811 -0.566538 0.763578
-2.84382 -16.504 510.732 -0.371707 -0.551383 0.746867
-3.35329 -16.1763 510.686 -0.389872 -0.569071 0.723988
-3.81001 -15.9157 510.662 -0.400307 -0.555541 0.728786
14.0395 -8.15121 502.991 0.995403 0.0317369 0.0903619
14.0276 -8.4665 503.149 0.993048 0.0415804 0.110121
14.0285 -8.79887 503.313 0.985476 0.0265741 0.167724
13.9935 -9.08192 503.461 0.980021 0.00303561 0.198869
13.9635 -9.3715 503.611 0.9844 0.0173014 0.17509
13.9403 -9.66985 503.764 0.980395 0.00680135 0.196925
13.909 -9.95696 503.913 0.960684 -0.0305158 0.275964
13.8515 -10.2082 504.05 0.960563 -0.0400723 0.275162
13.8171 -10.4905 504.197 0.952368 -0.0634087 0.298286
13.7554 -10.7354 504.332 0.964749 -0.0957102 0.24515
6.57634 -17.9869 509.556 0.394078 -0.535301 0.747098
6.34425 -18.0029 509.617 0.453758 -0.566462 0.687913
6.16852 -18.0914 509.701 0.467162 -0.532288 0.705995
5.9848 -18.1723 509.782 0.337728 -0.586139 0.736464
5.76146 -18.1975 509.847 0.344947 -0.567165 0.747887
5.54658 -18.2354 509.915 0.265547 -0.535031 0.802014
5.27921 -18.2067 509.962 0.218604 -0.533907 0.816796
5.05746 -18.2365 510.027 0.272689 -0.515322 0.812456
4.83052 -18.2597 510.09 0.282153 -0.52655 0.801957
4.59214 -18.2683 510.149 0.260449 -0.493043 0.830106
4.37198 -18.3006 510.215 0.211585 -0.489838 0.845748
4.12208 -18.2947 510.27 0.175131 -0.515615 0.838731
3.86852 -18.2842 510.323 0.155383 -0.522122 0.838597
3.61939 -18.2797 510.377 0.132494 -0.528952 0.838245
3.35223 -18.2516 510.425 0.111786 -0.536356 0.836556
3.0831 -18.2223 510.472 0.116162 -0.530135 0.839919
2.82293 -18.2025 510.522 0.101257 -0.53088 0.841376
2.55874 -18.181 510.571 0.0629839 -0.550956 0.832154
2.27581 -18.1343 510.613 0.0137383 -0.549814 0.835174
1.97757 -18.0682 510.648 0.0097934 -0.555487 0.831468
1.71182 -18.0438 510.697 0.00783945 -0.59202 0.805885
1.4025 -17.964 510.728 -0.0687624 -0.601113 0.796201
1.07759 -17.8648 510.754 -0.0420143 -0.563593 0.824983
0.793121 -17.8172 510.795 -0.0441515 -0.551232 0.833183
0.479977 -17.7335 510.825 -0.133655 -0.582486 0.801777
0.136721 -17.6118 510.844 -0.166959 -0.592715 0.787917
-0.21504 -17.4796 510.859 -0.176304 -0.60475 0.776656
-0.569336 -17.3447 510.873 -0.195267 -0.572609 0.796235
-0.93987 -17.1895 510.881 -0.205414 -0.543239 0.814062
-1.29704 -17.0517 510.895 -0.231655 -0.551515 0.801354
-1.69913 -16.8574 510.891 -0.259225 -0.5581 0.788243
-2.07843 -16.6925 510.896 -0.275302 -0.560325 0.781182
-2.50692 -16.4658 510.882 -0.303914 -0.526899 0.793734
-2.96807 -16.1984 510.856 -0.336298 -0.509152 0.792254
-3.40599 -15.961 510.839 -0.385815 -0.543801 0.74527
14.0093 -7.957 503.147 0.992178 0.031271 0.120854
13.9984 -8.2738 503.306 0.990337 0.034072 0.134431
13.9776 -8.5768 503.461 0.985073 0.0265137 0.170083
13.9582 -8.88123 503.615 0.979031 0.00920376 0.203504
13.9283 -9.17114 503.765 0.984007 0.0137317 0.177601
13.9178 -9.48708 503.924 0.987574 -0.0352473 0.153152
13.8503 -9.72505 504.056 0.981858 -0.0827468 0.17061
13.8184 -10.0114 504.205 0.96724 -0.0529368 0.248281
13.7411 -10.2354 504.333 0.957569 -0.0149918 0.287813
13.7277 -10.546 504.49 0.951184 -0.0191027 0.308033
13.6824 -10.8132 504.632 0.949627 -0.0510382 0.309198
13.6292 -11.0693 504.771 0.963002 -0.0948084 0.252266
6.54893 -17.8027 509.715 0.462827 -0.547104 0.697472
6.36602 -17.8832 509.797 0.417971 -0.561406 0.714229
6.15321 -17.9217 509.865 0.474248 -0.596464 0.647548
5.95768 -17.9883 509.941 0.317648 -0.580299 0.749902
5.68503 -17.9503 509.986 0.276824 -0.507844 0.815759
5.48893 -18.0131 510.062 0.252144 -0.473544 0.843907
5.23623 -18.0029 510.114 0.216854 -0.527586 0.821357
5.02158 -18.0419 510.183 0.288284 -0.544852 0.787419
4.7859 -18.0539 510.243 0.231521 -0.533887 0.813242
4.54233 -18.056 510.299 0.231705 -0.544712 0.805978
4.30057 -18.0604 510.357 0.2244 -0.54231 0.809657
4.06186 -18.0692 510.416 0.172785 -0.540093 0.823678
3.80958 -18.0603 510.469 0.153634 -0.538546 0.828472
3.55248 -18.0458 510.521 0.13492 -0.53039 0.836949
3.29526 -18.0309 510.572 0.105771 -0.536456 0.837273
3.03112 -18.0075 510.621 0.10892 -0.549461 0.82839
2.77225 -17.9911 510.673 0.108882 -0.560728 0.82081
2.50403 -17.9629 510.72 0.0515529 -0.545713 0.836385
2.20665 -17.8977 510.756 0.0166733 -0.559317 0.828786
1.93939 -17.8712 510.804 0.0418442 -0.589664 0.806564
1.65858 -17.8276 510.847 0.012019 -0.574693 0.818281
1.36649 -17.7699 510.885 -0.0974276 -0.583446 0.806287
1.01801 -17.6405 510.901 -0.0634083 -0.587529 0.806715
0.744377 -17.6068 510.947 -0.0197678 -0.543719 0.839034
0.418733 -17.5072 510.973 -0.109507 -0.538313 0.8356
0.0834494 -17.3957 510.994 -0.142641 -0.559364 0.816557
-0.242028 -17.297 511.02 -0.199928 -0.585182 0.785869
-0.641758 -17.1043 511.017 -0.231476 -0.590887 0.772834
-1.00033 -16.9643 511.03 -0.223382 -0.597171 0.770381
-1.3801 -16.7979 511.034 -0.24046 -0.580373 0.77804
-1.75322 -16.6403 511.042 -0.251704 -0.544272 0.800258
-2.16769 -16.4309 511.034 -0.290451 -0.529217 0.797225
-2.62027 -16.1738 511.01 -0.327747 -0.539157 0.775817
-3.03879 -15.9603 511.001 -0.334338 -0.554917 0.761764
-3.48128 -15.717 510.982 -0.376885 -0.538544 0.75361
13.9124 -8.99704 503.928 0.993073 0.0225372 0.115313
13.9165 -9.33302 504.093 0.984281 -0.00497707 0.176539
13.8766 -9.60888 504.238 0.961875 -0.107977 0.251273
13.7641 -9.78656 504.354 0.965177 -0.119362 0.232779
13.7349 -10.075 504.5 0.978171 -0.0785458 0.192384
13.6601 -10.3026 504.63 0.970751 -0.0362894 0.23733
13.6139 -10.5686 504.772 0.965281 -0.0147597 0.260797
13.5873 -10.8608 504.922 0.960674 -0.0419094 0.274499
13.5393 -11.1239 505.062 0.910441 -0.0931601 0.403012
6.49578 -17.5858 509.863 0.457612 -0.541755 0.705048
6.31897 -17.6734 509.947 0.485751 -0.471361 0.736115
6.13705 -17.753 510.028 0.381374 -0.538426 0.751433
5.89696 -17.76 510.086 0.211996 -0.583734 0.783781
5.6501 -17.7568 510.142 0.216324 -0.574582 0.789341
5.41515 -17.7694 510.202 0.305037 -0.498029 0.811739
5.21093 -17.8219 510.274 0.267834 -0.467998 0.842166
4.96341 -17.8185 510.329 0.256121 -0.51167 0.820119
4.73486 -17.8398 510.392 0.246854 -0.51276 0.822277
4.50844 -17.864 510.456 0.229705 -0.513391 0.826841
4.27163 -17.8747 510.516 0.20458 -0.540322 0.81621
4.02153 -17.8689 510.57 0.162055 -0.558101 0.813795
3.76104 -17.8494 510.62 0.135329 -0.5545 0.821106
3.50452 -17.8358 510.672 0.127773 -0.561596 0.817486
3.24236 -17.8155 510.722 0.118434 -0.553925 0.8241
2.98287 -17.7977 510.773 0.120448 -0.557891 0.821127
2.72466 -17.7819 510.824 0.0768979 -0.559419 0.82531
2.42743 -17.7166 510.86 0.0574271 -0.553909 0.830595
2.18605 -17.7231 510.919 0.0522142 -0.572671 0.818121
1.88643 -17.6552 510.954 0.0270987 -0.560067 0.828004
1.59845 -17.6025 510.994 0.0178812 -0.526823 0.849787
1.30294 -17.5405 511.031 -0.0720965 -0.533428 0.842767
0.974213 -17.4363 511.055 -0.0929528 -0.564099 0.820458
0.645431 -17.3324 511.079 -0.0480679 -0.559784 0.827243
0.347976 -17.2688 511.116 -0.0864628 -0.521674 0.848752
0.0126003 -17.1572 511.138 -0.111075 -0.532172 0.839318
-0.316165 -17.0543 511.163 -0.18074 -0.549245 0.815882
-0.687165 -16.8981 511.171 -0.218814 -0.575272 0.788151
-1.03126 -16.7766 511.19 -0.240083 -0.598991 0.763918
