-0.452776 -26.1728 504.727 -0.249952 -0.535026 0.807014
-0.741017 -26.2997 504.573 -0.279428 -0.496671 0.821729
-1.00046 -26.3944 504.417 -0.339768 -0.503007 0.794697
-1.24551 -26.4731 504.26 -0.275958 -0.593437 0.756095
-1.47497 -26.5344 504.102 -0.28212 -0.591481 0.755353
-1.71144 -26.604 503.945 -0.334321 -0.559601 0.758338
-1.98236 -26.7121 503.79 -0.367598 -0.555705 0.745696
-2.18593 -26.7448 503.631 -0.375498 -0.540337 0.753019
-2.42305 -26.8154 503.475 -0.377681 -0.524565 0.763013
-2.6531 -26.8782 503.318 -0.456063 -0.524344 0.719076
-2.83089 -26.8827 503.157 -0.454788 -0.527676 0.717444
-3.05885 -26.9424 503 -0.430371 -0.531044 0.729913
-3.25905 -26.9724 502.841 -0.462803 -0.514969 0.72154
-3.46705 -27.0109 502.683 -0.521785 -0.471023 0.711251
-3.66174 -27.0329 502.525 -0.572228 -0.479704 0.665161
-3.83773 -27.0369 502.364 -0.543283 -0.533943 0.64788
-4.00984 -27.0351 502.204 -0.503253 -0.531842 0.681088
-4.22259 -27.0794 502.047 -0.528101 -0.498658 0.68735
-4.38714 -27.0678 501.886 -0.586057 -0.479141 0.653423
-4.57134 -27.0813 501.726 -0.604365 -0.488156 0.629641
-4.73685 -27.0724 501.566 -0.585228 -0.503559 0.63556
-4.9061 -27.0678 501.406 -0.582345 -0.480439 0.655784
-5.10772 -27.1 501.248 -0.601339 -0.487052 0.633381
-5.26679 -27.084 501.087 -0.632192 -0.503306 0.589081
-5.41618 -27.0571 500.926 -0.654882 -0.468794 0.592758
-5.57108 -27.0365 500.765 -0.698913 -0.421849 0.57755
-5.72027 -27.0094 500.603 -0.67165 -0.44148 0.594963
-5.866 -26.9785 500.441 -0.685183 -0.432214 0.586273
-6.00886 -26.9444 500.28 -0.738944 -0.389604 0.5497
-6.13685 -26.8933 500.117 -0.750862 -0.380266 0.540003
-6.28275 -26.8628 499.955 -0.731917 -0.414751 0.540629
-6.43833 -26.8433 499.794 -0.709257 -0.451869 0.541081
-6.58698 -26.816 499.633 -0.739667 -0.429595 0.518016
-6.71056 -26.7601 499.47 -0.76644 -0.379653 0.518106
-6.84587 -26.7176 499.308 -0.801921 -0.361277 0.475817
-6.95702 -26.6475 499.143 -0.7644 -0.391499 0.512271
-7.12384 -26.6412 498.984 -0.760001 -0.376713 0.529609
-7.24399 -26.5815 498.82 -0.815586 -0.388153 0.429135
-7.35166 -26.5074 498.656 -0.794317 -0.43515 0.423917
-7.45702 -26.4309 498.491 -0.79656 -0.39422 0.458347
-7.58526 -26.3807 498.329 -0.829606 -0.346375 0.437925
-7.68887 -26.3019 498.164 -0.852005 -0.338004 0.3998
-7.79164 -26.2223 497.999 -0.829932 -0.368317 0.418994
-7.89794 -26.1468 497.834 -0.819592 -0.346646 0.456185
-8.0216 -26.0914 497.671 -0.882628 -0.264846 0.388361
-8.12412 -26.0114 497.506 -0.910121 -0.24845 0.331591
-8.20408 -25.9056 497.34 -0.87423 -0.29113 0.388542
-8.30689 -25.8259 497.175 -0.859267 -0.298439 0.415445
-8.40746 -25.7445 497.01 -0.886465 -0.273242 0.373523
-8.51006 -25.6642 496.845 -0.927433 -0.254711 0.273843
-8.58887 -25.557 496.678 -0.929792 -0.278825 0.240297
-8.67056 -25.4531 496.511 -0.89344 -0.333567 0.300828
-8.76348 -25.3621 496.345 -0.895562 -0.321363 0.307727
-8.85187 -25.2659 496.179 -0.914222 -0.297733 0.274869
-8.92426 -25.1512 496.011 -0.920838 -0.268085 0.283175
-8.99479 -25.0343 495.843 -0.95072 -0.183513 0.249907
-9.06961 -24.9223 495.675 -0.952181 -0.231523 0.19937
-9.1346 -24.7989 495.507 -0.942977 -0.270834 0.193501
-9.17665 -24.6489 495.336 -0.982283 -0.13943 0.12522
-9.24135 -24.5251 495.167 -0.981727 -0.17249 0.0803699
-9.27581 -24.3661 494.996 -0.930395 -0.30831 0.198267
-9.37457 -24.2817 494.83 -0.958761 -0.229992 0.166975
-9.40514 -24.1181 494.658 -0.975833 -0.208143 0.0665304
-9.46845 -23.9924 494.489 -0.947228 -0.294671 0.126204
-9.54342 -23.8798 494.322 -0.970309 -0.233786 0.062005
-9.53335 -23.6692 494.144 -0.98033 -0.180367 0.0801287
-9.59842 -23.5453 493.975 -0.977209 -0.165648 0.132756
-9.65459 -23.4111 493.805 -0.989789 -0.13078 0.0566957
-9.66268 -23.2209 493.63 -0.994841 -0.099577 0.0194121
-9.68683 -23.0492 493.457 -0.995549 -0.0919273 0.020751
-9.70952 -22.8766 493.282 -0.99248 -0.122351 -0.00371541
-9.73094 -22.7007 493.109 -0.993144 -0.108769 -0.0428247
-9.72381 -22.4912 492.935 -0.99561 -0.0265671 -0.0897489
-9.6896 -22.2519 492.753 -0.991071 0.0428787 -0.126251
-9.67195 -22.0309 492.574 -0.996731 -0.0264996 -0.076316
-9.70409 -21.8691 492.398 -0.989268 -0.145211 -0.0162096
-9.71607 -21.6808 492.227 -0.990404 -0.134552 -0.0315496
-9.73228 -21.4991 492.051 -0.994162 -0.0933351 -0.054133
-9.72233 -21.2856 491.876 -0.991901 -0.054254 -0.114839
-9.71112 -21.0725 491.695 -0.987543 -0.0690902 -0.141372
-9.70549 -20.8647 491.517 -0.992137 -0.0514547 -0.114093
-9.67406 -20.6265 491.336 -0.994348 -0.00414137 -0.106091
-9.66558 -20.4144 491.16 -0.994338 0.00246864 -0.106233
-9.65322 -20.1988 490.979 -0.958668 0.0852813 -0.271447
-9.50068 -19.8178 490.784 -0.911282 0.154936 -0.381524
-9.36379 -19.4549 490.591 -0.941164 0.102835 -0.321925
-9.31986 -19.201 490.408 -0.97853 -0.0226036 -0.20486
-9.30476 -18.9808 490.228 -0.963599 0.023199 -0.266345
-9.21616 -18.674 490.04 -0.943285 0.0485385 -0.328416
-9.15733 -18.4019 489.855 -0.927897 0.0368295 -0.371012
-9.02983 -18.0488 489.662 -0.896445 0.119124 -0.426844
-8.81347 -17.5905 489.458 -0.897945 0.208381 -0.387649
-8.62178 -17.161 489.257 -0.887817 0.227277 -0.400157
-8.42895 -16.7297 489.055 -0.844878 0.201924 -0.495387
-0.236089 -25.8759 505.009 -0.237055 -0.599755 0.764263
-0.500882 -25.9763 504.853 -0.251957 -0.586035 0.770117
-0.724912 -26.0311 504.695 -0.231112 -0.556374 0.798145
-1.04405 -26.1929 504.542 -0.243851 -0.532645 0.810448
-1.31474 -26.3006 504.387 -0.310652 -0.542714 0.780357
-1.56396 -26.3842 504.231 -0.32777 -0.567132 0.755598
-1.80236 -26.4558 504.074 -0.328035 -0.573456 0.750694
-2.00485 -26.485 503.915 -0.379423 -0.559571 0.73683
-2.22426 -26.5377 503.756 -0.39189 -0.537802 0.746453
-2.45919 -26.6059 503.599 -0.372963 -0.519544 0.768748
-2.68673 -26.6659 503.442 -0.462758 -0.504478 0.728942
-2.88366 -26.6915 503.283 -0.451146 -0.534115 0.714975
-3.10976 -26.7497 503.126 -0.448228 -0.518927 0.727878
-3.29552 -26.764 502.966 -0.504025 -0.496712 0.706566
-3.48992 -26.7865 502.807 -0.490514 -0.499308 0.714204
-3.69501 -26.8214 502.649 -0.521873 -0.493424 0.695831
-3.88845 -26.8441 502.489 -0.568423 -0.494906 0.657239
-4.06401 -26.8462 502.329 -0.536197 -0.520428 0.664565
-4.24392 -26.853 502.169 -0.524857 -0.520043 0.673854
-4.43908 -26.8778 502.011 -0.565526 -0.49825 0.657211
-4.61316 -26.8785 501.851 -0.589703 -0.500388 0.633926
-4.78017 -26.8713 501.69 -0.611275 -0.494691 0.617757
-4.9484 -26.8655 501.53 -0.560593 -0.508243 0.653777
-5.12737 -26.872 501.37 -0.585365 -0.468715 0.661554
-5.29544 -26.8662 501.21 -0.680046 -0.432931 0.591699
-5.43522 -26.8283 501.048 -0.684867 -0.463859 0.561953
-5.59176 -26.8096 500.887 -0.678162 -0.463877 0.570013
-5.73892 -26.7804 500.725 -0.669932 -0.460271 0.582531
-5.91469 -26.7835 500.566 -0.689961 -0.478585 0.543056
-6.0397 -26.729 500.402 -0.725488 -0.456561 0.514994
-6.20069 -26.7156 500.242 -0.698246 -0.492801 0.51923
-6.34052 -26.678 500.08 -0.678555 -0.511545 0.527148
-6.48829 -26.6496 499.918 -0.713039 -0.466976 0.522981
-6.60337 -26.584 499.754 -0.777129 -0.402226 0.484029
-6.72763 -26.5288 499.591 -0.767468 -0.372076 0.522066
-6.87502 -26.5001 499.43 -0.787249 -0.395755 0.472881
-6.98181 -26.425 499.265 -0.768655 -0.434024 0.469887
-7.1096 -26.3739 499.102 -0.72084 -0.394434 0.569922
-7.27415 -26.365 498.942 -0.802338 -0.300797 0.515533
-7.38198 -26.2912 498.778 -0.846585 -0.303956 0.436927
-7.50222 -26.2316 498.615 -0.821611 -0.375565 0.428842
-7.60952 -26.157 498.45 -0.814158 -0.403252 0.417773
-7.73424 -26.1027 498.287 -0.833383 -0.384794 0.396745
-7.846 -26.0336 498.123 -0.845698 -0.390031 0.364241
-7.9489 -25.9539 497.958 -0.835571 -0.409254 0.366515
-8.04848 -25.8706 497.793 -0.864734 -0.368573 0.341157
-8.12393 -25.7595 497.625 -0.897461 -0.315818 0.307933
-8.22647 -25.6797 497.46 -0.868194 -0.358011 0.343609
-8.33964 -25.6124 497.297 -0.852958 -0.365857 0.372305
-8.44261 -25.5327 497.132 -0.866971 -0.324644 0.378112
-8.54479 -25.4524 496.967 -0.912105 -0.256521 0.319785
-8.60597 -25.3247 496.798 -0.924771 -0.24273 0.293055
-8.70643 -25.2424 496.633 -0.904361 -0.296197 0.307243
-8.7838 -25.1334 496.465 -0.901516 -0.296962 0.314775
-8.88257 -25.0491 496.3 -0.930302 -0.254055 0.264565
-8.93245 -24.9083 496.13 -0.94499 -0.255195 0.204622
-9.01403 -24.8041 495.963 -0.914003 -0.32463 0.243341
-9.11308 -24.7201 495.798 -0.934667 -0.287568 0.209049
-9.16523 -24.5817 495.628 -0.973085 -0.184334 0.138302
-9.20879 -24.4333 495.457 -0.968598 -0.200937 0.146433
-9.27425 -24.3103 495.288 -0.964258 -0.240208 0.111831
-9.32456 -24.1696 495.118 -0.953894 -0.248603 0.168174
-9.39184 -24.0486 494.95 -0.951335 -0.229053 0.206146
-9.45941 -23.9278 494.781 -0.97101 -0.187474 0.148299
-9.50847 -23.7855 494.611 -0.964671 -0.196916 0.175025
-9.55218 -23.6369 494.44 -0.989227 -0.104059 0.102965
-9.58212 -23.4722 494.267 -0.989803 -0.106492 0.0946014
-9.63186 -23.3305 494.096 -0.97717 -0.147178 0.153221
-9.65435 -23.157 493.923 -0.992598 -0.069425 0.0996413
-9.68344 -22.991 493.75 -0.996796 -0.0701072 0.0385158
-9.69894 -22.8083 493.578 -0.990506 -0.132157 0.0378478
-9.75191 -22.6706 493.406 -0.991278 -0.13173 -0.00400821
-9.74474 -22.4623 493.228 -0.995741 -0.0622231 -0.068029
-9.73962 -22.256 493.052 -0.992672 0.00609685 -0.12069
-9.69346 -22.0018 492.87 -0.993009 0.00418744 -0.117962
-9.70266 -21.8111 492.697 -0.996105 -0.0825839 -0.030907
-9.7194 -21.6306 492.52 -0.992898 -0.118675 0.00837441
-9.74767 -21.4629 492.347 -0.995482 -0.0919562 -0.0236702
-9.74329 -21.2568 492.169 -0.994436 -0.0885021 -0.0571309
-9.76961 -21.0865 491.995 -0.99172 -0.0767107 -0.102988
-9.75349 -20.8664 491.816 -0.98951 -0.0349244 -0.140177
-9.71568 -20.6207 491.635 -0.992481 -0.00368622 -0.122342
-9.70523 -20.4073 491.456 -0.993638 -0.00246518 -0.112593
-9.67683 -20.1719 491.276 -0.991877 -0.0144489 -0.126375
-9.64831 -19.9359 491.098 -0.956997 0.0971696 -0.273342
-9.507 -19.5685 490.902 -0.921966 0.160875 -0.352275
-9.38842 -19.2269 490.711 -0.953177 0.0841719 -0.290462
-9.35334 -18.9832 490.529 -0.968238 -0.0446656 -0.246008
-9.30741 -18.7266 490.346 -0.960271 0.00441607 -0.279034
-9.2378 -18.4418 490.16 -0.965104 0.0757142 -0.250683
-9.17132 -18.1606 489.974 -0.955209 0.147116 -0.256774
-9.02178 -17.7812 489.778 -0.911107 0.23764 -0.336765
-8.78277 -17.2958 489.572 -0.900029 0.225964 -0.372677
-8.66685 -16.9554 489.379 -0.88447 0.164073 -0.436798
-8.46966 -16.5186 489.177 -0.828191 0.165018 -0.535601
-0.310965 -25.7093 505.137 -0.288445 -0.542839 0.788749
-0.552026 -25.7831 504.98 -0.277883 -0.588973 0.758876
-0.82341 -25.8912 504.824 -0.219488 -0.605145 0.765261
-1.06923 -25.9707 504.667 -0.220756 -0.552597 0.803681
-1.34186 -26.0805 504.512 -0.317586 -0.494703 0.808955
-1.57297 -26.1438 504.354 -0.357201 -0.507257 0.784282
-1.81525 -26.2199 504.197 -0.376918 -0.508492 0.774189
-2.06709 -26.3069 504.041 -0.419626 -0.522936 0.741925
-2.26593 -26.3364 503.881 -0.40615 -0.547665 0.731509
-2.48536 -26.3851 503.723 -0.366213 -0.539465 0.758199
-2.72862 -26.4628 503.567 -0.42611 -0.524545 0.737077
-2.92399 -26.4867 503.407 -0.466326 -0.534307 0.705022
-3.11779 -26.5079 503.248 -0.456716 -0.527946 0.716019
-3.33758 -26.5606 503.09 -0.503622 -0.497005 0.706647
-3.5263 -26.5773 502.931 -0.488506 -0.504086 0.712221
-3.74032 -26.6211 502.774 -0.50644 -0.504242 0.69947
-3.90902 -26.617 502.612 -0.549293 -0.498319 0.670787
-4.10738 -26.6463 502.453 -0.548223 -0.49754 0.672239
-4.29141 -26.6568 502.294 -0.544625 -0.503997 0.670351
-4.47113 -26.6637 502.134 -0.552634 -0.511829 0.657744
-4.64829 -26.6679 501.974 -0.597051 -0.481246 0.64182
-4.8211 -26.6673 501.814 -0.618514 -0.471612 0.628508
-4.98439 -26.6559 501.653 -0.596107 -0.500194 0.628062
-5.15772 -26.656 501.493 -0.585633 -0.484924 0.649525
-5.33837 -26.6646 501.334 -0.648172 -0.44164 0.620345
-5.49879 -26.6501 501.173 -0.69175 -0.448024 0.566354
-5.64044 -26.6144 501.011 -0.673983 -0.494451 0.548877
-5.79663 -26.5953 500.85 -0.627448 -0.51584 0.583282
-5.96045 -26.5848 500.69 -0.704041 -0.455417 0.544905
-6.07761 -26.5215 500.525 -0.697189 -0.478043 0.534231
-6.25591 -26.5278 500.366 -0.681634 -0.511549 0.523157
-6.36278 -26.4527 500.202 -0.721469 -0.464458 0.513577
-6.52693 -26.443 500.041 -0.763584 -0.384365 0.518848
-6.63261 -26.3664 499.877 -0.812602 -0.361303 0.457316
-6.76452 -26.32 499.714 -0.717669 -0.459135 0.52359
-6.9253 -26.3066 499.554 -0.750264 -0.45278 0.481762
-7.03913 -26.2395 499.39 -0.813782 -0.442383 0.376903
-7.14257 -26.1608 499.225 -0.733706 -0.515453 0.442699
-7.27187 -26.1109 499.062 -0.746869 -0.454591 0.485318
-7.40229 -26.0632 498.899 -0.796681 -0.361997 0.484002
-7.54023 -26.0239 498.737 -0.803463 -0.378819 0.459286
-7.65903 -25.9626 498.574 -0.820316 -0.395605 0.413011
-7.76613 -25.8879 498.409 -0.81696 -0.41442 0.401039
-7.87928 -25.8201 498.245 -0.833039 -0.40972 0.37172
-7.98727 -25.7469 498.081 -0.861191 -0.342483 0.375574
-8.09018 -25.667 497.915 -0.892425 -0.275776 0.357106
-8.18858 -25.5823 497.75 -0.889127 -0.301002 0.344748
-8.29018 -25.5008 497.585 -0.873773 -0.338968 0.348742
-8.3672 -25.3923 497.418 -0.879843 -0.322055 0.349511
-8.4627 -25.3038 497.252 -0.888149 -0.304368 0.344314
-8.54128 -25.1962 497.085 -0.910958 -0.276 0.306559
-8.64351 -25.1157 496.92 -0.900436 -0.31107 0.304058
-8.73586 -25.0245 496.754 -0.902701 -0.318395 0.289404
-8.81606 -24.9184 496.587 -0.909952 -0.286109 0.300216
-8.90424 -24.8217 496.42 -0.917069 -0.278707 0.285144
-8.99948 -24.7334 496.255 -0.926684 -0.29181 0.23686
-9.08152 -24.6296 496.088 -0.926601 -0.277821 0.253428
-9.13172 -24.4889 495.918 -0.961237 -0.182446 0.206728
-9.17327 -24.3382 495.747 -0.971727 -0.153902 0.179055
-9.2482 -24.2261 495.579 -0.955439 -0.20231 0.214959
-9.3215 -24.112 495.411 -0.974105 -0.179455 0.137536
-9.33255 -23.9256 495.237 -0.967668 -0.186795 0.169487
-9.42661 -23.8358 495.071 -0.954053 -0.234974 0.185933
-9.45272 -23.6668 494.898 -0.97273 -0.170116 0.157662
-9.51757 -23.5426 494.729 -0.979084 -0.112702 0.169389
-9.54516 -23.3751 494.557 -0.988278 -0.101827 0.113743
-9.58806 -23.2254 494.385 -0.988021 -0.117947 0.0995168
-9.61006 -23.0512 494.212 -0.986699 -0.134637 0.0910962
-9.66471 -22.915 494.042 -0.987594 -0.133532 0.082631
-9.70164 -22.7581 493.87 -0.988648 -0.140551 0.053109
-9.74944 -22.6137 493.699 -0.985624 -0.165219 0.0353147
-9.76602 -22.4327 493.525 -0.994313 -0.104123 -0.022367
-9.76442 -22.2306 493.348 -0.994841 -0.0366628 -0.0945899
-9.74197 -22.004 493.17 -0.992772 0.00621767 -0.119851
-9.72366 -21.7819 492.991 -0.996359 -0.0110353 -0.0845369
-9.72839 -21.5867 492.815 -0.995974 -0.0879635 -0.0172739
-9.75106 -21.4124 492.641 -0.993006 -0.117992 -0.0040824
-9.76466 -21.2269 492.467 -0.99177 -0.122467 -0.0373508
-9.79095 -21.057 492.292 -0.992774 -0.104814 -0.0584247
-9.78146 -20.8442 492.115 -0.995554 -0.0383349 -0.086042
-9.75158 -20.6082 491.934 -0.993362 0.0290347 -0.111307
-9.72728 -20.3782 491.754 -0.993342 0.00858424 -0.11488
-9.70869 -20.1547 491.575 -0.994677 -0.0143535 -0.102036
-9.70511 -19.9493 491.395 -0.990005 0.0160619 -0.140112
-9.64863 -19.6803 491.213 -0.945379 0.0927822 -0.31249
-9.50542 -19.3097 491.02 -0.912823 0.103558 -0.395007
-9.4196 -19.0063 490.832 -0.95524 0.0036239 -0.295809
-9.42647 -18.8119 490.655 -0.978397 0.0111517 -0.206433
-9.33492 -18.5014 490.466 -0.968877 0.115776 -0.218798
-9.23269 -18.178 490.277 -0.965613 0.166503 -0.199668
-9.09926 -17.8175 490.083 -0.946714 0.20498 -0.248425
-8.9405 -17.4269 489.886 -0.918223 0.229888 -0.322518
-8.80349 -17.0616 489.692 -0.910887 0.168691 -0.3766
-8.68668 -16.7198 489.499 -0.88288 0.168572 -0.438299
-8.40356 -16.1812 489.287 -0.860483 0.23098 -0.454111
-0.043958 -25.3556 505.417 -0.21311 -0.53073 0.82031
-0.344129 -25.4957 505.263 -0.24743 -0.543572 0.802065
-0.612228 -25.6 505.107 -0.269977 -0.573624 0.773349
-0.856067 -25.6771 504.949 -0.305928 -0.551894 0.775771
-1.09044 -25.7438 504.791 -0.259378 -0.572746 0.777615
-1.37454 -25.8667 504.637 -0.25576 -0.569603 0.781114
-1.63014 -25.9576 504.48 -0.341199 -0.530127 0.77624
-1.86599 -26.0265 504.323 -0.335424 -0.550379 0.764574
-2.09229 -26.0847 504.165 -0.392404 -0.533191 0.749484
-2.31386 -26.1378 504.007 -0.435378 -0.51277 0.739941
-2.53491 -26.1904 503.849 -0.379368 -0.532082 0.756947
-2.76575 -26.2542 503.692 -0.409214 -0.530376 0.742459
-2.97551 -26.2944 503.533 -0.478171 -0.525263 0.703883
-3.18061 -26.3294 503.374 -0.474887 -0.537471 0.696855
-3.36211 -26.3388 503.214 -0.471659 -0.554892 0.685298
-3.56583 -26.3717 503.055 -0.457666 -0.56069 0.69005
-3.76525 -26.4004 502.896 -0.49693 -0.51986 0.694842
-3.96717 -26.4324 502.738 -0.550404 -0.498127 0.670019
-4.13341 -26.4241 502.577 -0.530771 -0.5255 0.66493
-4.32872 -26.4481 502.418 -0.533542 -0.508864 0.675567
-4.51866 -26.4655 502.26 -0.577886 -0.496438 0.647763
-4.67762 -26.4506 502.098 -0.597274 -0.489864 0.635057
-4.85581 -26.4564 501.938 -0.601309 -0.461287 0.652412
-5.03566 -26.4636 501.778 -0.620015 -0.481195 0.619704
-5.18515 -26.4366 501.616 -0.599326 -0.512051 0.615315
-5.35706 -26.4351 501.456 -0.615965 -0.47879 0.625578
-5.51477 -26.4176 501.295 -0.656925 -0.445795 0.608043
-5.69276 -26.4233 501.136 -0.692374 -0.413447 0.591338
-5.82527 -26.3772 500.973 -0.686658 -0.431579 0.585014
-5.98183 -26.3586 500.812 -0.685885 -0.457324 0.566053
-6.14567 -26.3483 500.651 -0.684108 -0.441098 0.580886
-6.29483 -26.3214 500.49 -0.746515 -0.375548 0.549253
-6.41591 -26.2624 500.326 -0.792655 -0.378315 0.478097
-6.5226 -26.187 500.161 -0.754975 -0.410361 0.511485
-6.68244 -26.1724 500.001 -0.762373 -0.412887 0.498309
-6.81176 -26.1229 499.838 -0.703413 -0.483215 0.521261
-6.96192 -26.0974 499.676 -0.722524 -0.476585 0.500825
-7.09008 -26.0467 499.514 -0.791831 -0.441861 0.421619
-7.2259 -26.0049 499.351 -0.795651 -0.455334 0.399513
-7.32925 -25.9257 499.186 -0.799939 -0.454786 0.391492
-7.43262 -25.8465 499.021 -0.767705 -0.421983 0.482244
-7.57793 -25.8158 498.86 -0.786393 -0.354729 0.505721
-7.68695 -25.743 498.695 -0.82126 -0.309897 0.479058
-7.82664 -25.7058 498.533 -0.828507 -0.32333 0.457202
-7.92948 -25.6263 498.369 -0.882311 -0.301112 0.361743
-7.99419 -25.5027 498.2 -0.894379 -0.288409 0.341917
-8.08986 -25.4147 498.035 -0.875952 -0.298258 0.379144
-8.19235 -25.3347 497.87 -0.874855 -0.278777 0.39612
-8.29367 -25.2531 497.704 -0.890047 -0.247862 0.382597
-8.39612 -25.1733 497.539 -0.892236 -0.261689 0.368014
-8.49892 -25.0935 497.374 -0.8948 -0.281131 0.346839
-8.59399 -25.0048 497.209 -0.892822 -0.309373 0.327347
-8.68841 -24.9154 497.043 -0.892998 -0.324152 0.312219
-8.76611 -24.8061 496.875 -0.921079 -0.279327 0.271273
-8.83956 -24.6936 496.708 -0.911994 -0.262158 0.315501
-8.94207 -24.6129 496.543 -0.904149 -0.260664 0.338481
-9.01484 -24.4984 496.375 -0.939693 -0.22341 0.258968
-9.05804 -24.3496 496.204 -0.954578 -0.205714 0.21555
-9.14171 -24.2476 496.037 -0.96518 -0.184328 0.185608
-9.19737 -24.1131 495.868 -0.963181 -0.190649 0.189564
-9.26176 -23.9887 495.699 -0.950103 -0.215357 0.225668
-9.31887 -23.8558 495.529 -0.977199 -0.135672 0.163324
-9.37089 -23.7167 495.359 -0.957785 -0.18592 0.219274
-9.46616 -23.6283 495.193 -0.969121 -0.190582 0.15647
-9.46764 -23.4304 495.018 -0.982339 -0.17554 0.0647745
-9.5307 -23.3041 494.849 -0.970641 -0.217295 0.103143
-9.57444 -23.156 494.677 -0.982805 -0.158686 0.0944132
-9.62403 -23.0133 494.507 -0.98341 -0.155231 0.0938462
-9.67132 -22.8685 494.336 -0.981911 -0.182284 0.0512152
-9.6989 -22.7006 494.163 -0.977811 -0.204133 0.0470626
-9.74066 -22.5492 493.992 -0.982577 -0.173809 0.0658287
-9.76974 -22.3829 493.819 -0.99263 -0.110775 0.0491349
-9.7857 -22.2012 493.644 -0.997451 -0.0677187 -0.0224702
-9.79054 -22.0064 493.469 -0.994999 -0.00764619 -0.0995943
-9.74526 -21.7529 493.287 -0.994604 0.0212934 -0.101536
-9.73894 -21.5447 493.111 -0.998663 -0.0243145 -0.0456082
-9.74642 -21.3525 492.935 -0.995124 -0.098618 0.00151501
-9.78384 -21.1953 492.762 -0.988524 -0.150843 -0.00814298
-9.80943 -21.0242 492.588 -0.991026 -0.124786 -0.047909
-9.80286 -20.8152 492.411 -0.99574 -0.0567565 -0.0726708
-9.78724 -20.5955 492.232 -0.991398 -0.0127267 -0.130263
-9.75963 -20.3615 492.052 -0.988688 -0.0242361 -0.148017
-9.75605 -20.1557 491.874 -0.986585 -0.0434768 -0.157355
-9.72758 -19.9204 491.694 -0.984907 -0.0533835 -0.164646
-9.70637 -19.6935 491.514 -0.99015 0.00382922 -0.139959
-9.68218 -19.4628 491.334 -0.958809 0.0968091 -0.267045
-9.57793 -19.1379 491.145 -0.933128 0.118758 -0.339366
-9.46467 -18.802 490.955 -0.957401 0.0575951 -0.282959
-9.36778 -18.4852 490.766 -0.972452 0.0987918 -0.211132
-9.27251 -18.17 490.577 -0.963959 0.182119 -0.193946
-9.16836 -17.8441 490.387 -0.959634 0.171672 -0.222781
-9.10046 -17.5607 490.2 -0.929268 0.150282 -0.337455
-8.95153 -17.1813 490.005 -0.909234 0.125779 -0.396829
-8.85648 -16.8653 489.815 -0.900727 0.122829 -0.416659
-8.64258 -16.4086 489.612 -0.865462 0.238836 -0.440379
-8.29787 -15.7966 489.393 -0.854653 0.290738 -0.430164
-8.03741 -15.2839 489.183 -0.868323 0.142136 -0.475197
-0.0992575 -25.1667 505.544 -0.155606 -0.594838 0.788641
-0.41413 -25.3234 505.391 -0.188766 -0.589963 0.785054
-0.650471 -25.392 505.232 -0.287217 -0.578485 0.763454
-0.900745 -25.4765 505.075 -0.278493 -0.563979 0.777412
-1.19304 -25.6085 504.921 -0.269894 -0.561289 0.782376
-1.41564 -25.6621 504.762 -0.289239 -0.572879 0.76691
-1.65124 -25.7306 504.604 -0.311323 -0.548782 0.775833
-1.91262 -25.8283 504.449 -0.367638 -0.51677 0.77317
-2.1299 -25.8764 504.29 -0.419907 -0.5097 0.750922
-2.34628 -25.9237 504.131 -0.413748 -0.528769 0.741091
-2.56369 -25.9722 503.973 -0.378982 -0.53096 0.757927
-2.8096 -26.0531 503.817 -0.406827 -0.528985 0.744759
-3.00612 -26.0783 503.657 -0.450568 -0.557544 0.697232
-3.21107 -26.1132 503.498 -0.450474 -0.553472 0.70053
-3.43761 -26.1724 503.341 -0.483541 -0.522984 0.701908
-3.62425 -26.187 503.181 -0.505343 -0.53414 0.677734
-3.80313 -26.1927 503.021 -0.496503 -0.544473 0.676043
-3.99507 -26.2133 502.862 -0.525513 -0.504676 0.684937
-4.19514 -26.2425 502.703 -0.557107 -0.500396 0.662749
-4.36103 -26.2344 502.542 -0.524143 -0.536044 0.661764
-4.5558 -26.2586 502.383 -0.575568 -0.506452 0.642049
-4.71628 -26.2438 502.222 -0.618602 -0.502948 0.603634
-4.87789 -26.2304 502.06 -0.560244 -0.506857 0.655151
-5.07808 -26.2608 501.902 -0.60803 -0.449227 0.654595
-5.23985 -26.248 501.741 -0.641884 -0.469002 0.606649
-5.4034 -26.2371 501.58 -0.624271 -0.508492 0.593061
-5.56049 -26.2188 501.419 -0.656126 -0.50322 0.562377
-5.68575 -26.1644 501.256 -0.661971 -0.467788 0.585635
-5.87459 -26.1825 501.097 -0.659938 -0.444964 0.605383
-6.03114 -26.1639 500.936 -0.700628 -0.458354 0.546838
-6.13905 -26.0897 500.771 -0.716612 -0.452168 0.531047
-6.28689 -26.0612 500.609 -0.717406 -0.405298 0.566624
-6.4505 -26.0508 500.449 -0.785897 -0.359475 0.503133
-6.57065 -25.9908 500.285 -0.751278 -0.404267 0.52168
-6.72644 -25.9715 500.124 -0.722776 -0.422458 0.546922
-6.85181 -25.9175 499.961 -0.720305 -0.421296 0.551062
-7.02027 -25.9129 499.801 -0.740146 -0.415029 0.529089
-7.12571 -25.8361 499.636 -0.789237 -0.401293 0.464832
-7.25325 -25.7847 499.473 -0.814918 -0.361584 0.452951
-7.36037 -25.7099 499.309 -0.862244 -0.318125 0.394121
-7.46344 -25.6304 499.144 -0.820269 -0.387672 0.420557
-7.57225 -25.5572 498.979 -0.801024 -0.38534 0.45812
-7.69507 -25.501 498.816 -0.801759 -0.350156 0.484328
-7.81642 -25.4421 498.652 -0.81333 -0.338952 0.47287
-7.93267 -25.3782 498.488 -0.88483 -0.28947 0.365079
-8.0355 -25.2983 498.323 -0.893872 -0.322846 0.311067
-8.13799 -25.2177 498.158 -0.884625 -0.333807 0.325594
-8.21563 -25.1101 497.991 -0.885417 -0.298554 0.356233
-8.31853 -25.0298 497.826 -0.875177 -0.308292 0.372854
-8.41111 -24.9382 497.66 -0.873817 -0.310919 0.373864
-8.51388 -24.8583 497.495 -0.874925 -0.309938 0.372081
-8.61226 -24.7739 497.329 -0.88324 -0.310562 0.351338
-8.71031 -24.6883 497.164 -0.905823 -0.299505 0.299635
-8.78996 -24.5817 496.996 -0.936647 -0.253082 0.242159
-8.85467 -24.4578 496.828 -0.914709 -0.288259 0.283222
-8.94883 -24.3678 496.662 -0.899794 -0.302874 0.314067
-9.03922 -24.274 496.496 -0.936218 -0.255979 0.240771
-9.12903 -24.1789 496.329 -0.949058 -0.275773 0.152438
-9.16657 -24.0233 496.158 -0.960636 -0.231608 0.153413
-9.22427 -23.8911 495.989 -0.960697 -0.205903 0.186187
-9.28828 -23.7662 495.82 -0.961194 -0.235326 0.143969
-9.33378 -23.6202 495.648 -0.965433 -0.236782 0.108969
-9.39121 -23.4869 495.479 -0.944747 -0.235264 0.228263
-9.4668 -23.3753 495.311 -0.961979 -0.156819 0.223615
-9.53616 -23.2563 495.143 -0.981838 -0.154008 0.110791
-9.57339 -23.0993 494.972 -0.982208 -0.173009 0.0730432
-9.58826 -22.9174 494.797 -0.983512 -0.154173 0.0945219
-9.64155 -22.7796 494.627 -0.975535 -0.150724 0.160042
-9.69091 -22.637 494.456 -0.982388 -0.152201 0.108387
-9.73577 -22.4892 494.285 -0.986945 -0.155487 0.0419861
-9.75291 -22.309 494.111 -0.992208 -0.113127 0.0522173
-9.77769 -22.1375 493.937 -0.99325 -0.10761 0.0432937
-9.81179 -21.9768 493.765 -0.997866 -0.0540845 -0.0365719
-9.77367 -21.7317 493.585 -0.99335 0.0103817 -0.114669
-9.75984 -21.5155 493.405 -0.994544 -0.000690171 -0.104311
-9.75094 -21.3034 493.23 -0.996352 -0.0766553 -0.0375044
-9.79114 -21.1494 493.057 -0.985259 -0.171037 0.00330529
-9.82398 -20.9867 492.884 -0.989788 -0.142479 -0.00431153
-9.82453 -20.7854 492.709 -0.996417 -0.0654095 -0.0536184
-9.81864 -20.5778 492.53 -0.992328 -0.0673083 -0.103707
-9.82842 -20.3877 492.354 -0.98422 -0.0635529 -0.165144
-9.79875 -20.1512 492.174 -0.983179 -0.0671979 -0.169833
-9.79622 -19.9464 491.996 -0.987949 -0.0490661 -0.146796
-9.76816 -19.7114 491.816 -0.983995 0.0051394 -0.178122
-9.7097 -19.4406 491.632 -0.989511 0.0353867 -0.140055
-9.67628 -19.1989 491.451 -0.971617 0.13327 -0.195446
-9.5272 -18.8209 491.257 -0.956793 0.162322 -0.241246
-9.48365 -18.5669 491.074 -0.955524 0.128174 -0.265602
-9.35935 -18.2175 490.882 -0.939097 0.103464 -0.327706
-9.26916 -17.908 490.694 -0.946379 0.0852123 -0.311619
-9.19938 -17.6224 490.508 -0.957185 0.0688527 -0.28117
-9.13711 -17.3454 490.322 -0.927659 0.0962758 -0.360804
-8.98142 -16.9579 490.126 -0.906624 0.109997 -0.407351
-8.85949 -16.6099 489.933 -0.887133 0.186983 -0.421939
-8.55477 -16.0453 489.719 -0.854931 0.281842 -0.435498
-8.26825 -15.5018 489.507 -0.853693 0.265168 -0.448212
-8.05665 -15.0465 489.303 -0.869983 0.198556 -0.451336
-0.167031 -24.9917 505.672 -0.185742 -0.564217 0.804462
-0.448307 -25.1107 505.516 -0.221255 -0.564844 0.794982
-0.71513 -25.2137 505.36 -0.335316 -0.522816 0.783726
-0.943297 -25.2733 505.201 -0.279868 -0.565632 0.775716
-1.19037 -25.3544 505.044 -0.250383 -0.574891 0.778979
-1.47549 -25.4786 504.889 -0.330808 -0.542504 0.772176
-1.70197 -25.5369 504.731 -0.334758 -0.555602 0.761081
-1.93289 -25.6003 504.573 -0.354838 -0.542057 0.76175
-2.1623 -25.6621 504.415 -0.387264 -0.537839 0.748836
-2.40162 -25.7353 504.258 -0.385935 -0.580305 0.717148
-2.604 -25.7669 504.098 -0.337722 -0.599444 0.725679
-2.85423 -25.8528 503.942 -0.358365 -0.560484 0.746614
-3.08055 -25.9117 503.784 -0.455482 -0.555742 0.695476
-3.26492 -25.9233 503.624 -0.465427 -0.574155 0.67359
-3.44029 -25.9234 503.464 -0.471873 -0.518607 0.71301
-3.66564 -25.9831 503.306 -0.52021 -0.481902 0.705089
-3.85226 -25.9973 503.146 -0.549776 -0.500635 0.668664
-4.03108 -26.0028 502.986 -0.527944 -0.494112 0.690745
-4.22296 -26.0235 502.827 -0.547615 -0.456531 0.701211
-4.42235 -26.0532 502.668 -0.569225 -0.47155 0.673516
-4.58869 -26.0447 502.507 -0.574898 -0.491085 0.654468
-4.77889 -26.0642 502.347 -0.635457 -0.48343 0.602071
-4.91573 -26.0225 502.184 -0.609374 -0.492902 0.621057
-5.09025 -26.0239 502.024 -0.572811 -0.470306 0.671342
-5.27553 -26.0377 501.865 -0.616637 -0.451563 0.644865
-5.44574 -26.0343 501.705 -0.639892 -0.452891 0.620829
-5.60945 -26.0236 501.544 -0.714685 -0.407131 0.568744
-5.74866 -25.9851 501.381 -0.672692 -0.49992 0.545495
-5.89666 -25.9566 501.219 -0.601924 -0.534462 0.593328
-6.06565 -25.9521 501.059 -0.711897 -0.416921 0.565137
-6.21729 -25.928 500.898 -0.755985 -0.453316 0.47222
-6.33275 -25.8623 500.733 -0.704452 -0.492762 0.510816
-6.47425 -25.8267 500.571 -0.753475 -0.408413 0.515242
-6.58801 -25.7593 500.407 -0.74884 -0.394343 0.532665
-6.74639 -25.743 500.246 -0.730574 -0.397924 0.554904
-6.87517 -25.6928 500.083 -0.727748 -0.381239 0.570123
-7.02827 -25.6706 499.922 -0.746841 -0.338761 0.572249
-7.16402 -25.6286 499.759 -0.826011 -0.281622 0.488257
-7.26757 -25.5498 499.594 -0.833142 -0.286382 0.473138
-7.39179 -25.494 499.431 -0.834934 -0.302402 0.459824
-7.51524 -25.4383 499.268 -0.834396 -0.365564 0.412489
-7.62689 -25.3684 499.103 -0.818442 -0.425787 0.385822
-7.73518 -25.295 498.938 -0.785125 -0.446355 0.429356
-7.8711 -25.2533 498.776 -0.794047 -0.433502 0.426105
-7.97893 -25.1793 498.612 -0.842226 -0.388539 0.373755
-8.08146 -25.0994 498.447 -0.892856 -0.319664 0.317211
-8.14194 -24.9706 498.278 -0.910398 -0.28846 0.296592
-8.24428 -24.8902 498.112 -0.879119 -0.341304 0.332659
-8.34711 -24.8104 497.947 -0.866074 -0.364398 0.342243
-8.44982 -24.7305 497.782 -0.866506 -0.361932 0.343764
-8.55247 -24.6506 497.617 -0.866408 -0.337732 0.367797
-8.65533 -24.5708 497.452 -0.878175 -0.298507 0.373767
-8.75217 -24.484 497.286 -0.915371 -0.272797 0.296104
-8.81451 -24.3573 497.117 -0.931507 -0.257613 0.25677
-8.91429 -24.274 496.952 -0.914674 -0.290189 0.281357
-8.99055 -24.1632 496.784 -0.90533 -0.291469 0.308905
-9.08167 -24.0702 496.618 -0.915042 -0.226242 0.333937
-9.15234 -23.9528 496.45 -0.96818 -0.13925 0.207933
-9.1775 -23.7828 496.278 -0.972746 -0.187972 0.135762
-9.26043 -23.6797 496.11 -0.938662 -0.290995 0.185028
-9.33511 -23.5665 495.943 -0.95635 -0.242919 0.162434
-9.39624 -23.4386 495.773 -0.982369 -0.158674 0.098857
-9.39883 -23.242 495.598 -0.967883 -0.195439 0.158132
-9.48389 -23.1413 495.431 -0.943627 -0.225678 0.24215
-9.53857 -23.0052 495.261 -0.974431 -0.171333 0.145355
-9.57822 -22.8515 495.09 -0.986671 -0.15458 0.0508482
-9.6223 -22.7029 494.919 -0.988164 -0.142603 0.0565424
-9.64262 -22.5265 494.745 -0.966527 -0.20981 0.147667
-9.74124 -22.4413 494.579 -0.972789 -0.200753 0.115669
-9.74703 -22.2478 494.404 -0.992416 -0.122378 0.011619
-9.7727 -22.0774 494.231 -0.987251 -0.159067 0.00568556
-9.81711 -21.9288 494.059 -0.989546 -0.143796 -0.0109882
-9.80685 -21.7159 493.882 -0.996568 -0.0491498 -0.066605
-9.8141 -21.5238 493.707 -0.985357 -0.0376091 -0.166306
-9.77213 -21.2741 493.525 -0.984516 -0.0859471 -0.152776
-9.8006 -21.106 493.353 -0.98642 -0.160664 -0.0340931
-9.83084 -20.9402 493.179 -0.986636 -0.161826 -0.0190415
-9.82702 -20.7345 493.002 -0.994386 -0.101656 -0.0293638
-9.85251 -20.5627 492.829 -0.993261 -0.101799 -0.0554035
-9.87089 -20.3829 492.653 -0.987742 -0.109009 -0.111725
-9.85638 -20.1642 492.475 -0.98768 -0.0546651 -0.146628
-9.83313 -19.9349 492.296 -0.991289 -0.00579694 -0.13158
-9.79858 -19.6925 492.114 -0.994564 0.0255142 -0.100955
-9.76695 -19.4532 491.933 -0.988417 0.0953115 -0.118096
-9.69869 -19.1704 491.749 -0.984916 0.125354 -0.119279
-9.63292 -18.8906 491.564 -0.972331 0.158729 -0.171396
-9.55457 -18.5956 491.377 -0.958286 0.11053 -0.263574
-9.47877 -18.3034 491.191 -0.948273 0.0495568 -0.313564
-9.41436 -18.0244 491.006 -0.926609 0.0675199 -0.369914
-9.29812 -17.684 490.815 -0.933828 0.0560282 -0.353309
-9.21506 -17.3825 490.627 -0.966228 0.081409 -0.244492
-9.14437 -17.0953 490.441 -0.947813 0.135344 -0.288674
-9.01397 -16.7374 490.247 -0.901459 0.156318 -0.403654
-8.80174 -16.2823 490.044 -0.862005 0.222627 -0.455396
-8.51208 -15.7351 489.832 -0.856579 0.268595 -0.4406
-8.29636 -15.275 489.628 -0.860066 0.229435 -0.455681
-8.04923 -14.7773 489.42 -0.870579 0.213011 -0.44353
-0.216087 -24.7955 505.799 -0.1999 -0.54616 0.81348
-0.490149 -24.9065 505.642 -0.272828 -0.543009 0.79417
-0.716687 -24.9642 505.483 -0.287229 -0.539194 0.791688
-1.02673 -25.1162 505.33 -0.275495 -0.558288 0.782571
-1.27129 -25.1945 505.172 -0.248249 -0.62126 0.743242
-1.50343 -25.259 505.014 -0.263496 -0.626047 0.733918
-1.74514 -25.3345 504.856 -0.321399 -0.596483 0.735467
-1.98597 -25.4091 504.699 -0.319296 -0.602807 0.731214
-2.22169 -25.4782 504.541 -0.322724 -0.580069 0.74791
-2.46643 -25.5576 504.385 -0.378726 -0.563412 0.734257
-2.67491 -25.5961 504.225 -0.395441 -0.56603 0.72335
-2.8874 -25.6393 504.067 -0.360463 -0.552401 0.751611
-3.12063 -25.7061 503.909 -0.471853 -0.484908 0.736355
-3.30966 -25.7216 503.75 -0.565917 -0.468969 0.67809
-3.49479 -25.7354 503.589 -0.48955 -0.53901 0.685426
-3.692 -25.7635 503.429 -0.481924 -0.514562 0.709207
-3.88669 -25.7857 503.27 -0.567776 -0.482071 0.667261
-4.05178 -25.7758 503.109 -0.562217 -0.490028 0.666172
-4.2432 -25.7959 502.949 -0.520553 -0.476327 0.708617
-4.43933 -25.8215 502.79 -0.556735 -0.45322 0.69616
-4.6256 -25.8369 502.63 -0.575303 -0.469401 0.669842
-4.80307 -25.8425 502.47 -0.641592 -0.46009 0.61374
-4.95004 -25.8106 502.308 -0.651146 -0.4591 0.604348
-5.1326 -25.8218 502.148 -0.56358 -0.510541 0.649404
-5.3049 -25.82 501.988 -0.593598 -0.493945 0.635342
-5.46669 -25.807 501.827 -0.660243 -0.442994 0.606495
-5.60675 -25.7693 501.665 -0.640683 -0.430189 0.635975
-5.8252 -25.8212 501.508 -0.692515 -0.392158 0.605504
-5.93426 -25.7483 501.343 -0.717268 -0.407881 0.564943
-6.09014 -25.7288 501.182 -0.653387 -0.449316 0.609263
-6.25384 -25.7184 501.021 -0.76039 -0.375435 0.529958
-6.3626 -25.6451 500.856 -0.784435 -0.389978 0.482264
-6.5036 -25.6088 500.694 -0.768604 -0.401104 0.49836
-6.63036 -25.5563 500.531 -0.750404 -0.405089 0.522299
-6.77505 -25.5243 500.369 -0.742217 -0.414688 0.526449
-6.89365 -25.4624 500.205 -0.753048 -0.401938 0.520926
-7.03426 -25.4258 500.042 -0.745056 -0.410182 0.525968
-7.15295 -25.3641 499.879 -0.811371 -0.34462 0.472139
-7.27706 -25.3087 499.715 -0.81514 -0.329247 0.476596
-7.40542 -25.2581 499.552 -0.769652 -0.401006 0.496819
-7.55055 -25.2271 499.39 -0.787893 -0.408219 0.461065
-7.66721 -25.1628 499.226 -0.827183 -0.383173 0.411031
-7.78323 -25.0983 499.062 -0.799334 -0.413433 0.436048
-7.90369 -25.0388 498.899 -0.819857 -0.362907 0.442869
-8.00657 -24.959 498.733 -0.876583 -0.28049 0.391059
-8.0942 -24.8616 498.567 -0.908177 -0.243282 0.340629
-8.19685 -24.7812 498.401 -0.895354 -0.299305 0.329784
-8.29954 -24.7016 498.237 -0.863951 -0.381909 0.328229
-8.39035 -24.6079 498.07 -0.861246 -0.395365 0.319283
-8.49231 -24.5276 497.906 -0.884679 -0.34377 0.314907
-8.56113 -24.4077 497.737 -0.89109 -0.291925 0.347474
-8.66367 -24.3276 497.572 -0.873434 -0.288641 0.392174
-8.76629 -24.2475 497.407 -0.915461 -0.247239 0.317498
-8.84461 -24.1389 497.239 -0.924354 -0.259957 0.27927
-8.92524 -24.0341 497.072 -0.920933 -0.272508 0.278605
-8.99451 -23.9148 496.904 -0.937287 -0.255938 0.236619
-9.0519 -23.7822 496.734 -0.924994 -0.256407 0.280431
-9.15328 -23.7005 496.569 -0.941698 -0.189157 0.27825
-9.24703 -23.6101 496.403 -0.955423 -0.186528 0.228854
-9.30393 -23.4767 496.233 -0.9551 -0.226456 0.191054
-9.34375 -23.3235 496.062 -0.970408 -0.205182 0.127317
-9.37544 -23.1607 495.89 -0.979282 -0.183727 0.0851559
-9.45172 -23.0501 495.721 -0.966984 -0.226156 0.117451
-9.4995 -22.9055 495.551 -0.941443 -0.270901 0.200745
-9.59198 -22.8133 495.385 -0.95924 -0.258146 0.114972
-9.63101 -22.6588 495.213 -0.979774 -0.19968 -0.0130937
-9.6326 -22.4606 495.038 -0.983908 -0.169433 0.0567168
-9.71441 -22.3557 494.87 -0.958372 -0.261776 0.114002
-9.74088 -22.1863 494.697 -0.97451 -0.211573 0.0746171
-9.79063 -22.044 494.526 -0.991346 -0.10472 0.0791611
-9.83383 -21.8938 494.355 -0.990935 -0.132069 0.0245972
-9.828 -21.6864 494.178 -0.993031 -0.103812 -0.0557953
-9.83942 -21.499 494.003 -0.992975 -0.098784 -0.0651368
-9.86132 -21.3237 493.829 -0.990295 -0.0473838 -0.130655
-9.82159 -21.077 493.647 -0.995266 -0.0377398 -0.0895555
-9.84312 -20.9001 493.475 -0.993558 -0.113158 0.00616051
-9.84756 -20.704 493.299 -0.995542 -0.0927824 -0.0169414
-9.8736 -20.5331 493.125 -0.993341 -0.112859 -0.0231833
-9.89233 -20.3535 492.95 -0.989653 -0.136891 -0.042986
-9.89961 -20.1601 492.775 -0.991049 -0.0719349 -0.112463
-9.86808 -19.9217 492.593 -0.990269 0.00868361 -0.138898
-9.8281 -19.6723 492.413 -0.99173 0.052538 -0.117097
-9.78931 -19.4247 492.231 -0.989407 0.0759126 -0.123741
-9.72582 -19.1479 492.046 -0.982056 0.0949796 -0.162923
-9.66362 -18.8719 491.862 -0.976505 0.0856991 -0.197722
-9.6145 -18.6114 491.679 -0.97871 0.0534885 -0.198155
-9.60167 -18.3934 491.5 -0.96579 0.0450848 -0.255377
-9.52191 -18.0964 491.314 -0.93997 0.0175251 -0.340807
-9.45051 -17.8089 491.128 -0.921003 0.0556441 -0.385562
-9.30882 -17.4382 490.934 -0.930604 0.116286 -0.347065
-9.19639 -17.1017 490.743 -0.964715 0.115492 -0.236615
-9.13452 -16.8248 490.557 -0.961287 0.142647 -0.235752
-9.02578 -16.4922 490.366 -0.897101 0.185075 -0.401194
-8.78505 -16.003 490.16 -0.842817 0.23119 -0.486016
-8.48315 -15.4409 489.947 -0.850637 0.226559 -0.474434
-8.29534 -15.0136 489.746 -0.854628 0.212872 -0.4736
-8.00723 -14.4669 489.533 -0.850817 0.221472 -0.47651
-0.252017 -24.5844 505.925 -0.19205 -0.562368 0.804276
-0.527602 -24.6972 505.768 -0.263593 -0.562107 0.783935
-0.79581 -24.8019 505.612 -0.221862 -0.609246 0.761313
-1.04607 -24.8866 505.454 -0.19702 -0.590571 0.782565
-1.34663 -25.0282 505.3 -0.292749 -0.550528 0.781804
-1.58243 -25.0969 505.142 -0.324322 -0.57968 0.74752
-1.82285 -25.171 504.984 -0.329669 -0.574111 0.749476
-2.04696 -25.2268 504.826 -0.376943 -0.543867 0.749749
-2.25791 -25.2679 504.667 -0.352316 -0.554533 0.753901
-2.49923 -25.3435 504.509 -0.379714 -0.555668 0.739629
-2.70375 -25.3776 504.35 -0.427385 -0.53568 0.728278
-2.93464 -25.4416 504.192 -0.427799 -0.527444 0.734024
-3.11843 -25.4525 504.032 -0.454508 -0.51518 0.726644
-3.34904 -25.5163 503.874 -0.504645 -0.491657 0.709653
-3.53576 -25.5309 503.714 -0.535534 -0.491733 0.686587
-3.72288 -25.5459 503.554 -0.501499 -0.504699 0.702694
-3.93163 -25.5853 503.395 -0.563153 -0.477988 0.674081
-4.09532 -25.574 503.234 -0.576203 -0.510321 0.638406
-4.27851 -25.5849 503.074 -0.509163 -0.535339 0.673918
-4.47051 -25.6065 502.914 -0.520686 -0.493379 0.696752
-4.66629 -25.6318 502.755 -0.564383 -0.475487 0.674821
-4.83685 -25.6269 502.595 -0.637409 -0.466881 0.61297
-4.99598 -25.6097 502.434 -0.606993 -0.510997 0.608639
-5.17626 -25.6195 502.273 -0.566055 -0.525927 0.634809
-5.34613 -25.615 502.113 -0.628736 -0.478173 0.613222
-5.50029 -25.594 501.951 -0.67399 -0.456103 0.581127
-5.66053 -25.5794 501.79 -0.633573 -0.506732 0.584644
-5.78304 -25.5217 501.626 -0.652679 -0.451099 0.608703
-5.97406 -25.5423 501.467 -0.710071 -0.371567 0.598111
-6.11805 -25.5093 501.305 -0.68789 -0.427346 0.586671
-6.26388 -25.4784 501.143 -0.732979 -0.397482 0.552042
-6.41207 -25.4502 500.981 -0.787309 -0.362288 0.49889
-6.52382 -25.3804 500.816 -0.762797 -0.441787 0.472192
-6.66274 -25.3417 500.654 -0.719953 -0.496441 0.484989
-6.80186 -25.3033 500.491 -0.729647 -0.483888 0.483185
-6.94238 -25.2665 500.329 -0.732426 -0.466628 0.495793
-7.08835 -25.2361 500.167 -0.771689 -0.407643 0.488183
-7.20045 -25.1668 500.002 -0.815192 -0.381971 0.435385
-7.31473 -25.1 499.838 -0.751088 -0.456767 0.476687
-7.47496 -25.0861 499.678 -0.736386 -0.475177 0.481605
-7.57868 -25.0075 499.513 -0.789142 -0.408705 0.458492
-7.70893 -24.9583 499.349 -0.825006 -0.337244 0.453466
-7.812 -24.8792 499.184 -0.844328 -0.316505 0.432359
-7.91497 -24.7997 499.019 -0.857612 -0.317245 0.404792
-8.01281 -24.7137 498.853 -0.880345 -0.309334 0.35959
-8.11563 -24.6339 498.688 -0.872192 -0.333148 0.35818
-8.22181 -24.5579 498.523 -0.848563 -0.370275 0.377937
-8.33607 -24.4912 498.359 -0.859818 -0.363868 0.358208
-8.43887 -24.4113 498.194 -0.890959 -0.342442 0.298205
-8.50864 -24.2931 498.026 -0.916733 -0.299775 0.264075
-8.59648 -24.1959 497.859 -0.899731 -0.310174 0.307042
-8.69592 -24.1121 497.694 -0.86857 -0.350923 0.349912
-8.79192 -24.0242 497.528 -0.895852 -0.31743 0.310947
-8.87886 -23.9258 497.361 -0.91371 -0.313705 0.258306
-8.96358 -23.8248 497.194 -0.91207 -0.328714 0.245101
-9.05788 -23.7352 497.028 -0.938681 -0.29244 0.182636
-9.11558 -23.6027 496.859 -0.941603 -0.293064 0.165826
-9.16868 -23.4649 496.689 -0.929035 -0.27735 0.244891
-9.22858 -23.335 496.52 -0.93509 -0.223099 0.275377
-9.32186 -23.2439 496.353 -0.953425 -0.20199 0.224013
-9.39483 -23.1291 496.185 -0.969964 -0.208214 0.125764
-9.4581 -23.0025 496.017 -0.971797 -0.219904 0.0851607
-9.47709 -22.8252 495.843 -0.963108 -0.250411 0.0985773
-9.54686 -22.7065 495.674 -0.928355 -0.30219 0.216423
-9.6392 -22.6141 495.508 -0.964446 -0.171281 0.201264
-9.65042 -22.427 495.334 -0.996625 -0.0776217 0.0267238
-9.67277 -22.2529 495.16 -0.974455 -0.197595 0.106736
-9.75886 -22.1529 494.993 -0.971996 -0.186762 0.142629
-9.77165 -21.9675 494.818 -0.99401 -0.10383 0.0341033
-9.77839 -21.7747 494.643 -0.982704 -0.143656 0.116861
-9.84863 -21.6556 494.476 -0.992216 -0.0966221 0.0785649
-9.86063 -21.4693 494.3 -0.998238 -0.0588921 -0.00718775
-9.88273 -21.2943 494.126 -0.996977 -0.0631812 -0.0452169
-9.84504 -21.0491 493.946 -0.996076 0.021224 -0.0859136
-9.81982 -20.8188 493.766 -0.999894 0.000172627 -0.0145621
-9.85297 -20.6558 493.594 -0.996781 -0.0687658 0.0412214
-9.87185 -20.4765 493.419 -0.995942 -0.0881299 0.0182449
-9.89867 -20.3064 493.245 -0.991831 -0.127405 0.00626643
-9.92091 -20.1308 493.071 -0.994289 -0.0999283 -0.0374716
-9.92158 -19.9297 492.894 -0.990599 -0.018638 -0.13552
-9.86396 -19.6602 492.71 -0.98162 0.0258788 -0.189085
-9.82675 -19.4141 492.53 -0.982998 0.0257987 -0.181795
-9.78265 -19.1598 492.348 -0.983019 0.0362987 -0.17988
-9.7584 -18.9288 492.168 -0.978364 0.0414954 -0.202686
-9.71299 -18.6726 491.986 -0.972814 0.0331751 -0.229198
-9.66131 -18.4089 491.802 -0.974025 -0.00391435 -0.226405
-9.60952 -18.1448 491.619 -0.972942 -0.00445034 -0.231006
-9.5852 -17.913 491.438 -0.959774 0.0739109 -0.270872
-9.46055 -17.5624 491.246 -0.929067 0.137355 -0.343464
-9.30924 -17.1801 491.051 -0.922615 0.142784 -0.358322
-9.19393 -16.84 490.86 -0.956513 0.1195 -0.266088
-9.11761 -16.5457 490.673 -0.967596 0.128032 -0.217638
-9.03609 -16.2451 490.485 -0.900639 0.200303 -0.385653
-8.75835 -15.7117 490.275 -0.859481 0.257944 -0.441313
-8.5331 -15.24 490.07 -0.863505 0.238505 -0.444381
-8.27863 -14.7333 489.862 -0.846719 0.205733 -0.490653
-8.05573 -14.2636 489.657 -0.844016 0.212503 -0.492421
-0.300566 -24.3874 506.051 -0.196004 -0.560477 0.804642
-0.593693 -24.5201 505.896 -0.208477 -0.578698 0.788445
-0.860682 -24.6235 505.739 -0.268565 -0.564229 0.780717
-1.11034 -24.7076 505.582 -0.256979 -0.561117 0.786835
-1.36206 -24.7941 505.424 -0.273602 -0.539826 0.796071
-1.62165 -24.8898 505.268 -0.383072 -0.487243 0.784761
-1.8298 -24.9274 505.108 -0.384723 -0.525728 0.758682
-2.07241 -25.0042 504.95 -0.352297 -0.570565 0.741851
-2.31698 -25.0834 504.793 -0.33517 -0.578641 0.743529
-2.55593 -25.1563 504.636 -0.392762 -0.559635 0.729758
-2.75282 -25.1817 504.476 -0.434908 -0.536521 0.723188
-2.9684 -25.2272 504.318 -0.450551 -0.499376 0.740019
-3.18888 -25.2811 504.159 -0.470194 -0.513991 0.717448
-3.37341 -25.2929 503.998 -0.474802 -0.542923 0.692674
-3.5696 -25.3186 503.838 -0.525518 -0.500623 0.687901
-3.76312 -25.3415 503.678 -0.518391 -0.497298 0.695676
-3.94686 -25.3519 503.518 -0.525589 -0.489202 0.696016
-4.15939 -25.3956 503.36 -0.576298 -0.48206 0.659923
-4.31551 -25.3756 503.198 -0.548958 -0.534063 0.642979
-4.5055 -25.3942 503.039 -0.510826 -0.533784 0.673893
-4.68941 -25.405 502.879 -0.553916 -0.475871 0.683172
-4.88121 -25.4259 502.72 -0.603633 -0.470181 0.643861
-5.04919 -25.4211 502.558 -0.601929 -0.511708 0.613055
-5.21548 -25.4134 502.397 -0.595472 -0.528322 0.605218
-5.37245 -25.3943 502.236 -0.62434 -0.509473 0.592146
-5.54218 -25.3904 502.075 -0.63155 -0.48131 0.607853
-5.71161 -25.3862 501.914 -0.6874 -0.483078 0.542325
-5.85145 -25.3483 501.752 -0.676931 -0.538421 0.501864
-5.97966 -25.2971 501.588 -0.619958 -0.524315 0.583735
-6.16466 -25.311 501.429 -0.687414 -0.464786 0.558065
-6.28776 -25.254 501.265 -0.735825 -0.417339 0.533281
-6.42853 -25.2173 501.103 -0.721385 -0.411398 0.557096
-6.60385 -25.2203 500.943 -0.738783 -0.422281 0.525241
-6.73061 -25.1677 500.779 -0.734073 -0.474477 0.485806
-6.8672 -25.1265 500.617 -0.735335 -0.507188 0.44949
-6.97851 -25.056 500.452 -0.770638 -0.449599 0.451639
-7.087 -24.9825 500.287 -0.774434 -0.400445 0.489791
-7.23647 -24.9561 500.126 -0.780081 -0.401035 0.480255
-7.36955 -24.9109 499.963 -0.74357 -0.449154 0.495343
-7.50036 -24.8631 499.8 -0.792129 -0.382525 0.475612
-7.60392 -24.7841 499.635 -0.836754 -0.36027 0.412369
-7.71198 -24.71 499.47 -0.822503 -0.388566 0.415337
-7.8285 -24.6459 499.306 -0.827654 -0.377971 0.414881
-7.95883 -24.5976 499.143 -0.838097 -0.394674 0.376598
-8.06197 -24.5181 498.977 -0.855812 -0.391487 0.338119
-8.16727 -24.4406 498.812 -0.850628 -0.385395 0.357635
-8.27151 -24.3627 498.647 -0.848722 -0.361598 0.385899
-8.37453 -24.2829 498.482 -0.86139 -0.331076 0.385222
-8.47061 -24.1952 498.316 -0.910015 -0.264128 0.319545
-8.55002 -24.0881 498.149 -0.925314 -0.250455 0.28472
-8.63376 -23.986 497.982 -0.89363 -0.292772 0.340161
-8.73525 -23.9043 497.816 -0.882269 -0.294744 0.367053
-8.82883 -23.814 497.65 -0.890523 -0.281657 0.357266
-8.93148 -23.7336 497.485 -0.910765 -0.274264 0.308686
-9.00272 -23.617 497.317 -0.920379 -0.276572 0.276423
-9.07895 -23.5061 497.149 -0.94153 -0.250626 0.225185
-9.13576 -23.3726 496.98 -0.964183 -0.205963 0.167123
-9.19887 -23.2463 496.811 -0.953318 -0.236544 0.187703
-9.27971 -23.1407 496.643 -0.921311 -0.331174 0.20374
-9.35279 -23.026 496.475 -0.924828 -0.315907 0.211887
-9.41883 -22.903 496.306 -0.961662 -0.230341 0.148828
-9.44833 -22.7375 496.134 -0.971083 -0.200059 0.130286
-9.54311 -22.6479 495.968 -0.968236 -0.226194 0.10656
-9.56543 -22.4738 495.795 -0.967221 -0.225022 0.117676
-9.59268 -22.3054 495.622 -0.966486 -0.165349 0.196377
-9.69114 -22.2199 495.456 -0.988781 -0.126359 0.079664
-9.69644 -22.0257 495.281 -0.980464 -0.175818 0.0881939
-9.75236 -21.8916 495.108 -0.979313 -0.133661 0.151922
-9.78301 -21.7258 494.938 -0.995369 -0.0648545 0.0709597
-9.82708 -21.5766 494.766 -0.987218 -0.132295 0.088873
-9.85276 -21.4058 494.593 -0.991352 -0.107908 0.074677
-9.86873 -21.2235 494.419 -0.997574 -0.067936 0.0151973
-9.87925 -21.0347 494.244 -0.996928 -0.0137987 -0.0771002
-9.84131 -20.789 494.064 -0.99396 0.0167415 -0.108461
-9.84848 -20.5964 493.887 -0.996352 -0.0751919 -0.0403671
-9.86324 -20.4118 493.713 -0.991262 -0.130051 0.0220424
-9.90157 -20.2552 493.54 -0.99256 -0.106024 0.0598656
-9.93131 -20.0884 493.367 -0.994971 -0.0939037 0.034863
-9.94306 -19.9004 493.191 -0.996974 -0.0664518 -0.0403346
-9.93192 -19.6853 493.013 -0.991005 3.41046e-005 -0.133825
-9.90289 -19.449 492.833 -0.971614 -0.00640467 -0.236483
-9.85669 -19.1923 492.651 -0.961529 -0.0323494 -0.272794
-9.8122 -18.9374 492.469 -0.974215 -0.00461817 -0.225576
-9.76151 -18.675 492.286 -0.981385 0.0306526 -0.189589
-9.7095 -18.4109 492.103 -0.984777 0.0488442 -0.166817
-9.68466 -18.1786 491.923 -0.985962 0.0422929 -0.161523
-9.65052 -17.9352 491.741 -0.973589 0.0530286 -0.222063
-9.53396 -17.5942 491.55 -0.964734 0.122055 -0.233217
-9.46577 -17.3101 491.365 -0.946048 0.184509 -0.266363
-9.32321 -16.9378 491.171 -0.929454 0.17696 -0.32373
-9.18417 -16.5693 490.977 -0.946747 0.122045 -0.297953
-9.10872 -16.2759 490.79 -0.961134 0.105437 -0.255158
-9.0096 -15.9541 490.6 -0.893754 0.222495 -0.389487
-8.68273 -15.3621 490.384 -0.867361 0.256205 -0.426667
-8.51301 -14.9559 490.186 -0.885353 0.238819 -0.398894
-8.29709 -14.4946 489.982 -0.853549 0.219858 -0.472351
-8.02578 -13.967 489.771 -0.840933 0.214975 -0.496606
-0.347592 -24.1886 506.178 -0.165934 -0.580829 0.796934
-0.643544 -24.3246 506.023 -0.253244 -0.535421 0.805725
-0.870635 -24.383 505.864 -0.308246 -0.505721 0.805748
-1.15862 -24.5104 505.708 -0.310139 -0.50853 0.80325
-1.39511 -24.5798 505.55 -0.325738 -0.524373 0.78672
-1.63895 -24.6577 505.392 -0.329282 -0.519455 0.788505
-1.9173 -24.7748 505.237 -0.346714 -0.523158 0.778521
-2.15222 -24.843 505.079 -0.354897 -0.554223 0.752918
-2.36106 -24.8818 504.919 -0.358985 -0.565314 0.742664
-2.5863 -24.9393 504.761 -0.418875 -0.545944 0.725595
