0.408739 -39.4041 495.715 -0.258164 -0.561702 0.78603
0.126931 -39.3165 495.696 -0.320825 -0.560506 0.763481
-0.197459 -39.1557 495.645 -0.385469 -0.575398 0.72134
-0.522259 -38.9947 495.594 -0.3801 -0.589788 0.712512
-0.832344 -38.8596 495.554 -0.351165 -0.566046 0.745839
-1.15093 -38.7102 495.508 -0.388875 -0.528295 0.754772
-1.48766 -38.5302 495.449 -0.424057 -0.549346 0.719996
-1.81494 -38.3669 495.397 -0.458768 -0.568058 0.683259
-2.21074 -38.0865 495.293 -0.469328 -0.499709 0.728026
-2.55744 -37.891 495.227 -0.469842 -0.451167 0.758747
-2.99014 -37.5489 495.097 -0.531882 -0.40812 0.741984
-3.38475 -37.2727 494.995 -0.558511 -0.430291 0.709166
-3.82207 -36.9243 494.862 -0.60619 -0.495308 0.622256
15.7637 -31.8036 490.933 0.950099 -0.141879 0.277816
15.6811 -32.0778 491.074 0.939941 -0.161306 0.300818
15.5885 -32.3328 491.206 0.943499 -0.155861 0.292434
15.5032 -32.6012 491.344 0.942879 -0.13193 0.305897
15.4172 -32.8679 491.482 0.917337 -0.140552 0.372475
15.3249 -33.1221 491.614 0.903273 -0.170464 0.393752
15.2211 -33.3546 491.736 0.893741 -0.199046 0.402004
15.1109 -33.5745 491.853 0.884744 -0.211475 0.415339
15.0076 -33.8072 491.975 0.90954 -0.191574 0.368832
14.9146 -34.0589 492.106 0.880591 -0.200886 0.429191
14.7919 -34.2545 492.212 0.846611 -0.22607 0.481812
14.671 -34.4533 492.319 0.864212 -0.219221 0.452857
14.5619 -34.6738 492.436 0.838128 -0.232813 0.493295
14.4327 -34.8565 492.537 0.820649 -0.248804 0.514424
14.3159 -35.062 492.647 0.821497 -0.261121 0.50691
14.1796 -35.231 492.741 0.807075 -0.274052 0.522997
14.0551 -35.4219 492.845 0.799996 -0.27291 0.534347
13.9249 -35.6019 492.944 0.795706 -0.275247 0.539528
13.7933 -35.7796 493.041 0.788983 -0.270871 0.551484
13.6644 -35.9609 493.141 0.749776 -0.291946 0.593804
13.5216 -36.1169 493.23 0.740103 -0.29992 0.601911
13.3863 -36.2863 493.324 0.7367 -0.308426 0.601786
13.2379 -36.4318 493.407 0.722248 -0.323463 0.611334
13.0966 -36.5899 493.497 0.724342 -0.32637 0.607298
12.9596 -36.7559 493.589 0.721115 -0.348128 0.598999
12.8116 -36.9015 493.673 0.735322 -0.350417 0.580094
12.6671 -37.0531 493.759 0.672882 -0.389162 0.629112
12.4971 -37.1579 493.825 0.612671 -0.400299 0.681465
12.3505 -37.3057 493.91 0.674024 -0.384623 0.63068
12.1975 -37.4414 493.989 0.672364 -0.40716 0.61818
12.0367 -37.5629 494.062 0.653629 -0.392705 0.646955
11.875 -37.6825 494.134 0.607473 -0.386902 0.693746
11.7196 -37.8136 494.211 0.623997 -0.400797 0.670812
11.571 -37.957 494.294 0.625686 -0.407914 0.664923
11.3966 -38.0531 494.356 0.568638 -0.406761 0.71498
11.2408 -38.183 494.432 0.561312 -0.439044 0.701547
11.0575 -38.263 494.487 0.572164 -0.426809 0.700331
10.9046 -38.3981 494.566 0.549785 -0.427056 0.717885
10.7311 -38.4957 494.628 0.518977 -0.471239 0.713159
10.5537 -38.5861 494.687 0.560162 -0.451993 0.694205
10.3821 -38.6869 494.751 0.503419 -0.439769 0.743756
10.2 -38.7691 494.807 0.432607 -0.446126 0.783469
10.0152 -38.846 494.86 0.438765 -0.459518 0.772223
9.8405 -38.941 494.921 0.443599 -0.471307 0.762292
9.66007 -39.0261 494.978 0.455207 -0.481071 0.749237
9.48949 -39.1286 495.043 0.5058 -0.480109 0.716703
9.30488 -39.2057 495.096 0.470138 -0.464274 0.750613
9.11968 -39.2824 495.149 0.399092 -0.45478 0.796179
8.92773 -39.3458 495.196 0.372273 -0.450081 0.81169
8.73529 -39.4094 495.244 0.282041 -0.463174 0.840192
8.5291 -39.448 495.28 0.291035 -0.497932 0.816922
8.33494 -39.5082 495.326 0.366056 -0.499943 0.784895
8.13626 -39.5604 495.368 0.334173 -0.473509 0.814934
7.94512 -39.6261 495.417 0.328267 -0.449187 0.830946
7.74845 -39.6826 495.461 0.345199 -0.439221 0.829411
7.55399 -39.7413 495.506 0.330071 -0.445932 0.831984
7.36816 -39.8171 495.559 0.277103 -0.49978 0.82063
7.15498 -39.8437 495.59 0.314058 -0.539058 0.781527
6.96873 -39.9183 495.642 0.268988 -0.545046 0.794084
6.7549 -39.9438 495.673 0.161379 -0.546953 0.821462
6.51624 -39.9254 495.684 0.122535 -0.507167 0.853093
6.30743 -39.9602 495.719 0.171526 -0.461206 0.870556
6.09409 -39.987 495.75 0.172749 -0.457384 0.872329
5.8686 -39.9924 495.772 0.0119449 -0.502097 0.864729
5.62513 -39.967 495.779 0.0772578 -0.53913 0.838671
5.42888 -40.0236 495.824 0.230238 -0.54596 0.805555
5.21253 -40.0456 495.853 0.132507 -0.529403 0.837959
4.9802 -40.0395 495.87 0.0871315 -0.505275 0.858548
4.76336 -40.0598 495.899 0.0788412 -0.519522 0.850812
4.53334 -40.0592 495.918 0.0200782 -0.56215 0.826792
4.28714 -40.0312 495.923 -0.00377622 -0.563713 0.825962
4.03987 -39.9976 495.93 -0.0139863 -0.53788 0.842906
3.79106 -39.9635 495.934 0.023545 -0.510466 0.859575
3.56283 -39.9657 495.954 -0.0137779 -0.50251 0.864461
3.3242 -39.9499 495.967 -0.0676379 -0.56338 0.823424
3.07002 -39.9068 495.968 -0.108791 -0.569709 0.814614
2.80166 -39.8397 495.958 -0.130013 -0.550742 0.824488
2.54111 -39.7873 495.953 -0.122529 -0.549974 0.826144
2.2825 -39.7366 495.951 -0.0996102 -0.578738 0.809407
2.0514 -39.7333 495.971 -0.153263 -0.612668 0.775338
1.75123 -39.6156 495.936 -0.221196 -0.558415 0.799528
1.47683 -39.5388 495.922 -0.176231 -0.536229 0.82547
1.21666 -39.4842 495.92 -0.208331 -0.563857 0.799164
0.943467 -39.412 495.906 -0.24392 -0.584949 0.773523
0.651599 -39.3049 495.88 -0.252357 -0.579998 0.774544
0.350455 -39.1804 495.847 -0.253271 -0.536561 0.804957
0.0599524 -39.0823 495.821 -0.29066 -0.519321 0.803631
-0.242182 -38.9601 495.786 -0.356164 -0.526527 0.771956
-0.559422 -38.8122 495.741 -0.386263 -0.542152 0.746239
-0.907552 -38.6115 495.673 -0.385805 -0.564711 0.729559
-1.22225 -38.4689 495.63 -0.373366 -0.543057 0.752122
-1.53917 -38.323 495.586 -0.395315 -0.524221 0.754267
-1.88352 -38.1304 495.521 -0.471109 -0.468233 0.747539
-2.29977 -37.815 495.402 -0.489381 -0.459749 0.741038
-2.67071 -37.5781 495.318 -0.525357 -0.483565 0.700118
-3.10807 -37.2281 495.184 -0.527865 -0.428601 0.733253
-3.50294 -36.9516 495.083 -0.493994 -0.42979 0.755811
-3.85436 -36.7501 495.014 -0.564986 -0.499522 0.65671
15.7494 -31.6546 491.095 0.946702 -0.135866 0.292054
15.6657 -31.9269 491.235 0.94184 -0.163914 0.293375
15.5716 -32.1793 491.366 0.939153 -0.177101 0.294324
15.4808 -32.4373 491.499 0.938233 -0.166414 0.303356
15.3844 -32.6845 491.628 0.927058 -0.152631 0.342444
15.2938 -32.9423 491.762 0.909456 -0.164958 0.381679
15.1895 -33.1739 491.883 0.889478 -0.190319 0.415461
15.086 -33.4065 492.006 0.889587 -0.196246 0.412458
14.9791 -33.6326 492.125 0.891321 -0.198374 0.407669
14.8592 -33.834 492.234 0.863582 -0.191512 0.466422
14.7511 -34.0572 492.352 0.847635 -0.205532 0.489154
14.6413 -34.2769 492.468 0.855867 -0.229234 0.463621
14.5172 -34.4694 492.573 0.842092 -0.24578 0.480076
14.3998 -34.6744 492.683 0.833427 -0.251762 0.491951
14.2755 -34.8662 492.787 0.812711 -0.246324 0.528039
14.1531 -35.0613 492.892 0.795556 -0.265635 0.544544
14.0194 -35.2349 492.989 0.803401 -0.284016 0.523337
13.8907 -35.4178 493.089 0.792198 -0.289539 0.537206
13.7559 -35.5892 493.184 0.785864 -0.292143 0.545042
13.621 -35.759 493.281 0.753365 -0.299543 0.585418
13.4765 -35.9131 493.366 0.747342 -0.302458 0.591607
13.3446 -36.0893 493.463 0.738732 -0.304694 0.601196
13.2002 -36.242 493.55 0.723589 -0.31556 0.613874
13.0636 -36.4089 493.643 0.744263 -0.325971 0.582937
12.9168 -36.557 493.727 0.729465 -0.333305 0.597318
12.7771 -36.7179 493.818 0.721076 -0.337386 0.605161
12.6327 -36.87 493.904 0.642886 -0.395983 0.655664
12.4636 -36.9765 493.971 0.647895 -0.418591 0.636407
12.32 -37.1298 494.058 0.689861 -0.363535 0.626047
12.165 -37.2622 494.135 0.633225 -0.385998 0.670844
12.0032 -37.3819 494.208 0.624556 -0.429305 0.652401
11.8458 -37.5094 494.283 0.648799 -0.423622 0.632142
11.6914 -37.6424 494.361 0.637316 -0.411492 0.651538
11.5174 -37.7395 494.423 0.581299 -0.401304 0.707846
11.3571 -37.8616 494.497 0.60102 -0.400899 0.691415
11.1999 -37.9891 494.572 0.551866 -0.433133 0.712629
11.0207 -38.0766 494.63 0.561252 -0.440176 0.700886
10.864 -38.2049 494.706 0.582172 -0.419717 0.696358
10.6878 -38.2977 494.766 0.510051 -0.427133 0.746596
10.5214 -38.4082 494.834 0.50855 -0.4558 0.730495
10.3391 -38.49 494.89 0.482378 -0.493056 0.724022
10.1616 -38.58 494.949 0.467093 -0.506188 0.724982
9.98428 -38.6712 495.008 0.469218 -0.516197 0.716502
9.79975 -38.7482 495.062 0.471647 -0.511236 0.718461
9.61948 -38.8339 495.119 0.485704 -0.486288 0.726372
9.43941 -38.9193 495.176 0.46494 -0.486283 0.739837
9.25456 -38.996 495.229 0.424178 -0.497513 0.756673
9.06918 -39.0727 495.282 0.387358 -0.501784 0.773412
8.87537 -39.1326 495.328 0.353901 -0.499013 0.791037
8.68237 -39.1955 495.375 0.338899 -0.510533 0.790256
8.49434 -39.2668 495.426 0.33357 -0.537853 0.774239
8.29939 -39.3258 495.471 0.322376 -0.558209 0.764511
8.09769 -39.3726 495.511 0.309728 -0.566563 0.763594
7.89343 -39.4153 495.549 0.337193 -0.5477 0.765719
7.70288 -39.4816 495.598 0.36037 -0.523869 0.771813
7.51421 -39.5524 495.649 0.385746 -0.49194 0.780509
7.32645 -39.6239 495.699 0.343287 -0.490675 0.80087
7.13661 -39.6924 495.749 0.303146 -0.542608 0.783377
6.92784 -39.727 495.784 0.233739 -0.583004 0.778121
6.7052 -39.737 495.807 0.0958617 -0.586152 0.80451
6.48136 -39.745 495.83 0.0780495 -0.566505 0.820354
6.24356 -39.7284 495.843 0.168673 -0.532761 0.829286
6.04063 -39.7738 495.882 0.181547 -0.508715 0.841576
5.82611 -39.798 495.913 0.0722219 -0.536083 0.84107
5.59542 -39.7952 495.93 0.130431 -0.627025 0.768002
5.38343 -39.8249 495.963 0.174675 -0.625023 0.760812
5.14676 -39.8111 495.976 0.0883483 -0.506489 0.857708
4.9252 -39.8242 496.001 0.103401 -0.487266 0.86711
4.69683 -39.8253 496.021 0.119662 -0.507954 0.853032
4.48195 -39.8484 496.053 0.0206202 -0.52598 0.850247
4.22662 -39.8045 496.051 -0.0373778 -0.566655 0.823107
3.9961 -39.8032 496.07 -0.0431474 -0.574069 0.817669
3.74063 -39.7567 496.069 -0.00190506 -0.567459 0.8234
3.51494 -39.7635 496.092 0.045919 -0.584311 0.81023
3.27683 -39.7487 496.105 -0.067601 -0.572162 0.81735
3.00858 -39.6818 496.095 -0.128642 -0.544964 0.828532
2.75498 -39.6399 496.096 -0.130691 -0.554726 0.821705
2.49228 -39.5816 496.091 -0.09311 -0.592393 0.800251
2.25844 -39.5763 496.107 -0.0691042 -0.618958 0.782378
1.98424 -39.4997 496.093 -0.205093 -0.553512 0.807193
1.68517 -39.3802 496.06 -0.229053 -0.514159 0.826544
1.4239 -39.3267 496.057 -0.151585 -0.551906 0.820013
1.15599 -39.262 496.048 -0.193322 -0.591893 0.782489
0.866907 -39.1623 496.023 -0.238909 -0.5437 0.804557
0.580965 -39.07 496 -0.279416 -0.520201 0.807043
0.277271 -38.9399 495.966 -0.279742 -0.554228 0.783949
-0.0020401 -38.8567 495.949 -0.281761 -0.505187 0.815719
-0.32465 -38.6992 495.899 -0.327379 -0.48672 0.809893
-0.634217 -38.5646 495.86 -0.358883 -0.522471 0.773451
-0.93485 -38.4459 495.828 -0.396148 -0.538881 0.74342
-1.28805 -38.2371 495.756 -0.387607 -0.534975 0.750708
-1.61224 -38.0787 495.706 -0.439681 -0.503822 0.743535
-2.02891 -37.762 495.587 -0.484248 -0.481206 0.730715
-2.35053 -37.6092 495.54 -0.498464 -0.525057 0.689818
-2.73522 -37.3487 495.446 -0.567751 -0.492946 0.65929
-3.22644 -36.9064 495.272 -0.532398 -0.44444 0.720435
-3.5557 -36.7423 495.22 -0.436275 -0.484428 0.758283
-3.90076 -36.5518 495.157 -0.565397 -0.510251 0.648051
15.7208 -31.4785 491.245 0.942742 -0.107565 0.315702
15.6411 -31.7587 491.388 0.935761 -0.138977 0.324094
15.5506 -32.0178 491.522 0.922229 -0.151518 0.355719
15.4549 -32.2669 491.652 0.916519 -0.159556 0.36679
15.3564 -32.5103 491.779 0.9194 -0.156852 0.360694
15.2654 -32.7674 491.912 0.906312 -0.164014 0.389485
15.1575 -32.9924 492.03 0.886633 -0.176139 0.427618
15.0551 -33.2273 492.154 0.881444 -0.173403 0.439303
14.9468 -33.4508 492.272 0.861902 -0.202332 0.464959
14.832 -33.6619 492.385 0.869395 -0.210147 0.447204
14.7281 -33.8931 492.506 0.874154 -0.207689 0.438999
14.6086 -34.0947 492.615 0.853008 -0.222585 0.472052
14.4983 -34.3134 492.731 0.838911 -0.245534 0.485739
14.368 -34.4942 492.83 0.819623 -0.273025 0.503663
14.2359 -34.6716 492.928 0.823336 -0.263794 0.502524
14.1162 -34.8719 493.035 0.817997 -0.263237 0.511455
13.9904 -35.0606 493.138 0.795285 -0.277159 0.53917
13.8582 -35.2365 493.236 0.789722 -0.291042 0.540031
13.7262 -35.4134 493.333 0.774657 -0.313886 0.548983
13.5851 -35.5732 493.423 0.762597 -0.325206 0.559184
13.4535 -35.7503 493.52 0.756209 -0.334108 0.562601
13.3041 -35.894 493.603 0.750813 -0.335229 0.569123
13.1691 -36.0642 493.697 0.756739 -0.327053 0.566024
13.0299 -36.2267 493.788 0.741397 -0.330737 0.583904
12.8879 -36.3836 493.877 0.729124 -0.33891 0.594575
12.7434 -36.5359 493.964 0.725391 -0.340634 0.598144
12.5968 -36.6841 494.048 0.663095 -0.370091 0.650645
12.4434 -36.8196 494.127 0.616905 -0.418241 0.666711
12.2653 -36.9097 494.187 0.67608 -0.374432 0.6346
12.1345 -37.0865 494.284 0.668122 -0.363322 0.649315
11.9729 -37.2066 494.356 0.626008 -0.398426 0.670351
11.8176 -37.3382 494.434 0.618656 -0.403061 0.674394
11.6445 -37.437 494.496 0.585239 -0.414909 0.696668
11.4882 -37.5666 494.573 0.600544 -0.418242 0.681484
11.3277 -37.6884 494.646 0.613709 -0.423182 0.666542
11.1602 -37.7974 494.713 0.570375 -0.444458 0.690745
10.9954 -37.9112 494.783 0.556739 -0.462477 0.690042
10.8189 -38.0036 494.843 0.548752 -0.437184 0.71256
10.6509 -38.1114 494.91 0.542662 -0.41882 0.728085
10.484 -38.2211 494.978 0.532261 -0.429626 0.729465
10.3158 -38.3284 495.044 0.48243 -0.460387 0.745188
10.1336 -38.4105 495.1 0.473877 -0.473262 0.742606
9.95512 -38.499 495.158 0.456726 -0.480773 0.748504
9.77161 -38.5785 495.213 0.447362 -0.509532 0.735013
9.58926 -38.6601 495.268 0.477892 -0.507263 0.71715
9.41496 -38.7562 495.33 0.459509 -0.500894 0.733455
9.22991 -38.8329 495.383 0.411976 -0.507277 0.756932
9.0386 -38.8988 495.431 0.368557 -0.512095 0.775838
8.84347 -38.9564 495.476 0.364556 -0.516204 0.775004
8.6577 -39.0324 495.529 0.375559 -0.530401 0.76002
8.45979 -39.086 495.572 0.353134 -0.520502 0.777415
8.267 -39.1489 495.619 0.322452 -0.511746 0.796329
8.06924 -39.2029 495.662 0.295866 -0.553147 0.778776
7.8709 -39.2567 495.705 0.317239 -0.553585 0.770002
7.67261 -39.3083 495.747 0.332841 -0.538271 0.774262
7.46632 -39.348 495.784 0.366455 -0.514927 0.774958
7.28082 -39.4244 495.837 0.393411 -0.489209 0.778397
7.09093 -39.4915 495.886 0.32535 -0.509874 0.796352
6.89329 -39.5469 495.93 0.193854 -0.547148 0.814279
6.67182 -39.5591 495.955 0.0664678 -0.582502 0.810107
6.42504 -39.5264 495.96 0.0616469 -0.564644 0.823029
6.21519 -39.5595 495.994 0.141926 -0.549998 0.823019
5.98901 -39.5638 496.015 0.184452 -0.565312 0.80399
5.77681 -39.593 496.048 0.205223 -0.548838 0.810346
5.5884 -39.6643 496.099 0.140989 -0.548177 0.824393
5.34136 -39.6321 496.104 0.003882 -0.552196 0.833705
5.08388 -39.5817 496.101 0.0672396 -0.531151 0.844605
4.88126 -39.6282 496.141 0.134937 -0.537214 0.832582
4.65167 -39.6274 496.16 0.113423 -0.567479 0.815539
4.43144 -39.6431 496.187 0.0581514 -0.56433 0.823498
4.19848 -39.6359 496.204 -0.0313542 -0.583534 0.811483
3.94257 -39.59 496.203 -0.0472003 -0.598747 0.799546
3.70117 -39.5696 496.213 0.0283172 -0.568319 0.822321
3.48275 -39.5887 496.241 0.0112503 -0.563379 0.826122
3.21354 -39.5176 496.231 -0.106658 -0.55948 0.821953
2.96232 -39.4815 496.234 -0.120439 -0.558819 0.820497
2.69776 -39.423 496.226 -0.089249 -0.587738 0.804114
2.46641 -39.4175 496.246 -0.0609594 -0.605163 0.793764
2.20074 -39.3566 496.238 -0.148877 -0.559174 0.815573
1.91434 -39.2577 496.215 -0.236746 -0.507493 0.828494
1.63067 -39.1701 496.193 -0.188924 -0.543523 0.817857
1.38001 -39.132 496.198 -0.116209 -0.596862 0.793884
1.12758 -39.0918 496.202 -0.251744 -0.603852 0.756299
0.800732 -38.9276 496.148 -0.275159 -0.5742 0.771091
0.536497 -38.869 496.143 -0.253327 -0.55026 0.795637
0.239666 -38.7563 496.112 -0.335159 -0.57587 0.745682
-0.104788 -38.5606 496.046 -0.32381 -0.564892 0.758975
-0.376724 -38.4907 496.035 -0.312744 -0.547306 0.776304
-0.686443 -38.3559 495.996 -0.357309 -0.565036 0.743683
-1.02393 -38.1737 495.936 -0.39854 -0.535573 0.744532
-1.3546 -38.0038 495.882 -0.416257 -0.536013 0.734452
-1.69412 -37.8192 495.821 -0.464844 -0.517986 0.718061
-2.04857 -37.6094 495.749 -0.476015 -0.548847 0.687151
-2.39124 -37.4205 495.686 -0.541366 -0.582542 0.606273
-2.87744 -36.9859 495.516 -0.599674 -0.498383 0.626104
-3.28727 -36.6832 495.403 -0.531791 -0.506904 0.678415
-3.64125 -36.4769 495.333 -0.421989 -0.523696 0.740046
-3.98784 -36.2838 495.268 -0.544459 -0.484154 0.684952
15.6988 -31.3151 491.4 0.945586 -0.0970954 0.310548
15.6089 -31.5759 491.535 0.923924 -0.127127 0.360836
15.5131 -31.8253 491.665 0.920568 -0.149907 0.360671
15.4229 -32.0848 491.799 0.922311 -0.169872 0.347111
15.3272 -32.3336 491.928 0.919598 -0.17533 0.351567
15.227 -32.5736 492.053 0.907621 -0.188898 0.374889
15.1219 -32.8041 492.175 0.888134 -0.192744 0.417215
15.013 -33.0269 492.292 0.889804 -0.184396 0.417428
14.914 -33.268 492.418 0.872158 -0.197224 0.447709
14.7967 -33.4746 492.529 0.867641 -0.201062 0.454724
14.6882 -33.6973 492.647 0.869212 -0.214696 0.445395
14.5718 -33.905 492.758 0.85684 -0.219605 0.466475
14.4583 -34.1176 492.871 0.833702 -0.223862 0.504804
14.3342 -34.3103 492.975 0.803962 -0.250245 0.539465
14.2133 -34.5088 493.082 0.814212 -0.256054 0.521052
14.0837 -34.6907 493.182 0.813321 -0.269881 0.515435
13.9518 -34.8676 493.28 0.803164 -0.277103 0.527391
13.826 -35.056 493.383 0.791348 -0.276664 0.545184
13.6936 -35.2326 493.479 0.764539 -0.290445 0.575432
13.5571 -35.401 493.573 0.756559 -0.303878 0.579031
13.416 -35.5605 493.663 0.748825 -0.325077 0.577568
13.2783 -35.726 493.755 0.745781 -0.330815 0.578249
13.1378 -35.8863 493.845 0.741413 -0.31368 0.593222
12.9917 -36.036 493.93 0.730096 -0.309305 0.609337
12.8533 -36.1997 494.022 0.718817 -0.318132 0.618137
12.7044 -36.344 494.105 0.705111 -0.333898 0.625565
12.5597 -36.4959 494.191 0.676992 -0.353195 0.645705
12.4011 -36.622 494.266 0.59884 -0.382826 0.703445
12.244 -36.7508 494.342 0.657898 -0.376793 0.652072
12.0929 -36.8903 494.423 0.675896 -0.361781 0.64209
11.9315 -37.0109 494.496 0.611718 -0.359725 0.704556
11.7735 -37.1378 494.571 0.60167 -0.382482 0.701213
11.6148 -37.2631 494.646 0.598248 -0.409033 0.689051
11.452 -37.3809 494.717 0.612706 -0.408248 0.676701
11.2877 -37.4959 494.787 0.600127 -0.397606 0.694088
11.132 -37.6265 494.864 0.571018 -0.405558 0.713765
10.9571 -37.722 494.925 0.516595 -0.451836 0.727306
10.7791 -37.8117 494.984 0.52368 -0.444694 0.72664
10.6116 -37.9206 495.052 0.550542 -0.422777 0.719836
10.4393 -38.0208 495.115 0.537058 -0.420141 0.731472
10.2663 -38.1195 495.178 0.487609 -0.436795 0.755941
10.0844 -38.202 495.234 0.466445 -0.444384 0.764822
9.91121 -38.3004 495.296 0.478109 -0.439 0.760717
9.73665 -38.3962 495.358 0.452249 -0.463742 0.761849
9.55283 -38.4752 495.412 0.451515 -0.473519 0.75625
9.36773 -38.552 495.465 0.433558 -0.464307 0.772299
9.17938 -38.6228 495.516 0.387865 -0.463688 0.796589
8.99031 -38.6924 495.566 0.365618 -0.473542 0.8013
8.80139 -38.7623 495.616 0.383596 -0.48638 0.78504
8.61392 -38.8348 495.667 0.345368 -0.48861 0.801237
8.40948 -38.8771 495.706 0.322415 -0.485542 0.812587
8.21904 -38.9437 495.754 0.361016 -0.482998 0.797735
8.03242 -39.0182 495.806 0.299281 -0.495759 0.815263
7.81728 -39.0412 495.836 0.299558 -0.512029 0.805041
7.63125 -39.1164 495.889 0.316953 -0.52792 0.787935
7.43109 -39.1664 495.93 0.350596 -0.545021 0.7616
7.24532 -39.2427 495.983 0.395659 -0.540684 0.742371
7.05082 -39.3012 496.028 0.32682 -0.556062 0.764188
6.845 -39.3423 496.066 0.203977 -0.558589 0.803972
6.62332 -39.3542 496.091 0.0452496 -0.549635 0.834179
6.38546 -39.3375 496.103 0.0622898 -0.598743 0.798515
6.16294 -39.3482 496.127 0.175511 -0.595233 0.784151
5.96107 -39.3957 496.167 0.170141 -0.610643 0.773413
5.73809 -39.4059 496.191 0.183647 -0.62922 0.755219
5.50465 -39.3977 496.207 0.110258 -0.521162 0.846306
5.27887 -39.4031 496.229 -0.000797042 -0.493776 0.869589
5.04918 -39.4019 496.248 0.0930974 -0.548105 0.831213
4.8349 -39.428 496.279 0.168535 -0.589076 0.790307
4.61598 -39.446 496.307 0.0939889 -0.585464 0.805231
4.38131 -39.4364 496.322 0.0633089 -0.578219 0.813422
4.1488 -39.4316 496.339 -0.0127191 -0.56517 0.824877
3.90541 -39.4059 496.348 -0.06463 -0.56139 0.825024
3.64839 -39.3584 496.347 0.0177859 -0.575305 0.817746
3.41806 -39.3569 496.366 -0.0129322 -0.548181 0.83626
3.16871 -39.3241 496.37 -0.106805 -0.548125 0.829549
2.90979 -39.2713 496.368 -0.0836031 -0.565337 0.820613
2.67126 -39.2617 496.379 -0.0626929 -0.571671 0.818084
2.40794 -39.1988 496.375 -0.120798 -0.568589 0.813704
2.13185 -39.1206 496.359 -0.207957 -0.520512 0.828143
1.84615 -39.0223 496.337 -0.197884 -0.522675 0.829248
1.59621 -38.9872 496.343 -0.128559 -0.566933 0.81367
1.33474 -38.9347 496.339 -0.107872 -0.564489 0.818361
1.0683 -38.872 496.331 -0.263653 -0.535645 0.802229
0.750191 -38.7224 496.284 -0.288194 -0.539273 0.791283
0.472903 -38.6379 496.27 -0.227237 -0.558882 0.797505
0.184442 -38.5421 496.246 -0.337961 -0.551053 0.762969
-0.12441 -38.4081 496.207 -0.35206 -0.601135 0.717419
-0.435893 -38.2699 496.166 -0.310662 -0.602475 0.735196
-0.738251 -38.1479 496.133 -0.37394 -0.53574 0.757068
-1.0782 -37.9615 496.071 -0.396741 -0.533009 0.747327
-1.39157 -37.8214 496.03 -0.436439 -0.551872 0.710604
-1.77671 -37.5583 495.935 -0.447607 -0.540791 0.712175
-2.09104 -37.4176 495.893 -0.423883 -0.517235 0.743499
-2.45283 -37.1958 495.816 -0.559554 -0.500132 0.660883
-2.91506 -36.8024 495.664 -0.596246 -0.491988 0.634381
-3.32788 -36.4945 495.549 -0.5209 -0.498461 0.692965
-3.72039 -36.2223 495.451 -0.455352 -0.523242 0.720328
-4.05517 -36.0495 495.395 -0.537442 -0.514521 0.668149
15.6605 -31.1204 491.542 0.923184 -0.0651945 0.378788
15.5724 -31.385 491.679 0.920088 -0.102107 0.37817
15.5011 -31.6808 491.829 0.933426 -0.151506 0.325212
15.4008 -31.9214 491.954 0.934005 -0.200162 0.295921
15.3074 -32.1748 492.085 0.926479 -0.201961 0.317565
15.2073 -32.415 492.211 0.903625 -0.216728 0.369447
15.0927 -32.6277 492.324 0.896971 -0.221833 0.382404
14.9932 -32.8684 492.45 0.896225 -0.214375 0.388361
14.8752 -33.074 492.56 0.876273 -0.208453 0.434388
14.7689 -33.3013 492.68 0.874534 -0.191967 0.445353
14.6661 -33.5348 492.802 0.868457 -0.229714 0.439334
14.5391 -33.7227 492.904 0.855291 -0.253773 0.451748
14.4228 -33.9304 493.015 0.834943 -0.23325 0.498462
14.2959 -34.118 493.117 0.810339 -0.234328 0.537066
14.1699 -34.307 493.22 0.813395 -0.231616 0.533613
14.0517 -34.5104 493.329 0.802437 -0.252887 0.540503
13.9225 -34.6929 493.429 0.795667 -0.284798 0.534607
13.7868 -34.8635 493.523 0.788408 -0.292028 0.541417
13.6522 -35.0353 493.619 0.773083 -0.295083 0.561488
13.5173 -35.2065 493.714 0.767538 -0.296071 0.568531
13.3877 -35.3877 493.813 0.747525 -0.314703 0.584952
13.238 -35.531 493.895 0.725892 -0.335432 0.600471
13.0911 -35.6797 493.98 0.728996 -0.317607 0.606375
12.9558 -35.8495 494.074 0.733764 -0.317466 0.600671
12.8098 -35.9993 494.16 0.730068 -0.330797 0.597974
12.6723 -36.1647 494.252 0.706155 -0.339091 0.62158
12.5179 -36.299 494.331 0.656498 -0.360857 0.662414
12.3602 -36.4268 494.406 0.629452 -0.365307 0.685814
12.2043 -36.5578 494.483 0.652747 -0.371403 0.660289
12.0496 -36.6911 494.561 0.636539 -0.392856 0.663688
11.8863 -36.8083 494.633 0.64594 -0.397911 0.651482
11.7423 -36.9609 494.719 0.641737 -0.412926 0.646271
11.5718 -37.0649 494.784 0.611909 -0.421353 0.66935
11.4173 -37.1978 494.862 0.597516 -0.429337 0.677233
11.2444 -37.2974 494.925 0.595881 -0.417016 0.686312
11.084 -37.4195 494.999 0.589848 -0.398455 0.702363
10.922 -37.5386 495.07 0.507716 -0.435847 0.743143
10.7405 -37.6221 495.127 0.514977 -0.44912 0.73013
10.5728 -37.7307 495.194 0.54358 -0.440707 0.714352
10.3997 -37.8294 495.257 0.526775 -0.420109 0.738929
10.2327 -37.9393 495.324 0.487784 -0.448806 0.748759
10.048 -38.0164 495.378 0.475083 -0.479827 0.737606
9.87174 -38.1101 495.438 0.497196 -0.448514 0.742719
9.69316 -38.1983 495.497 0.460041 -0.445541 0.76802
9.51142 -38.2812 495.552 0.425735 -0.457201 0.780844
9.32626 -38.358 495.606 0.408716 -0.468374 0.783311
9.13993 -38.4331 495.658 0.393607 -0.485939 0.780344
8.95068 -38.5019 495.708 0.395958 -0.497129 0.772062
8.76516 -38.5781 495.761 0.372475 -0.517774 0.770177
8.56181 -38.6223 495.8 0.335688 -0.527512 0.780413
8.3746 -38.6952 495.851 0.345425 -0.541832 0.766224
8.17797 -38.7515 495.896 0.357474 -0.544187 0.758994
7.97804 -38.8019 495.937 0.323269 -0.514649 0.794125
7.79207 -38.8772 495.99 0.330085 -0.526914 0.783202
7.59392 -38.9311 496.033 0.35599 -0.534441 0.766579
7.40438 -38.9997 496.083 0.363236 -0.517629 0.774674
7.20997 -39.0603 496.129 0.379073 -0.517528 0.767117
7.0225 -39.1331 496.18 0.27919 -0.541505 0.792985
6.80094 -39.1452 496.205 0.143657 -0.59349 0.791917
6.57405 -39.1479 496.226 0.109441 -0.617048 0.779278
6.36822 -39.1882 496.263 0.0846774 -0.629303 0.772533
6.1296 -39.1706 496.275 0.194545 -0.609073 0.768884
5.94107 -39.2415 496.326 0.198896 -0.607418 0.76908
5.70472 -39.2282 496.339 0.0218488 -0.622831 0.782051
5.45839 -39.1986 496.345 0.037198 -0.592679 0.80458
5.23166 -39.2011 496.367 0.0851231 -0.59251 0.801053
5.00689 -39.2087 496.39 0.166699 -0.544912 0.821756
4.80949 -39.2647 496.434 0.143055 -0.539153 0.829969
4.56158 -39.2316 496.439 0.0801402 -0.529956 0.84423
4.35063 -39.2632 496.473 0.0341539 -0.525278 0.850245
4.08935 -39.2094 496.467 -0.0231703 -0.535214 0.844399
3.85308 -39.1956 496.482 -0.0294709 -0.526276 0.849803
3.61134 -39.1746 496.493 -0.0238168 -0.586608 0.809521
3.36965 -39.1519 496.504 -0.0362299 -0.595194 0.802765
3.11255 -39.1057 496.502 -0.0871021 -0.568068 0.818359
2.86476 -39.0718 496.509 -0.0725824 -0.562373 0.823692
2.60386 -39.0216 496.504 -0.0708863 -0.554462 0.829185
2.36024 -38.997 496.513 -0.18244 -0.551958 0.81367
2.05734 -38.8703 496.478 -0.211531 -0.550358 0.807688
1.81044 -38.8429 496.485 -0.148652 -0.554216 0.818992
1.53166 -38.7576 496.468 -0.124934 -0.547362 0.827519
1.27603 -38.7142 496.469 -0.152706 -0.535037 0.830913
0.990074 -38.6184 496.447 -0.251937 -0.503801 0.826264
0.69792 -38.5155 496.419 -0.255562 -0.504167 0.824927
0.42019 -38.4312 496.405 -0.233977 -0.540625 0.808072
0.126787 -38.3237 496.377 -0.292199 -0.567289 0.769937
-0.169059 -38.2122 496.349 -0.339569 -0.558009 0.757178
-0.491395 -38.0553 496.3 -0.358695 -0.551853 0.752859
-0.818907 -37.8899 496.248 -0.388932 -0.572317 0.721931
-1.14203 -37.7327 496.199 -0.390381 -0.569776 0.723158
-1.46294 -37.5797 496.152 -0.443857 -0.548647 0.708503
-1.82555 -37.3554 496.074 -0.474604 -0.560514 0.678657
-2.18847 -37.1312 495.996 -0.441978 -0.538864 0.717134
-2.53808 -36.9305 495.928 -0.545858 -0.46331 0.698128
-3.02577 -36.4934 495.758 -0.569357 -0.434944 0.697608
-3.43483 -36.1921 495.646 -0.493486 -0.46916 0.732367
-3.75926 -36.0366 495.598 -0.457577 -0.522569 0.719406
-4.14027 -35.7847 495.509 -0.53657 -0.465313 0.703972
15.613 -30.9085 491.677 0.937834 -0.0636868 0.34119
15.5454 -31.2119 491.83 0.942667 -0.0770439 0.324721
15.4744 -31.5085 491.98 0.922174 -0.076608 0.379114
15.3921 -31.7833 492.121 0.900295 -0.139728 0.412243
15.28 -32.0014 492.236 0.907259 -0.189008 0.375709
15.1806 -32.2432 492.362 0.894952 -0.204003 0.396792
15.0715 -32.4663 492.48 0.896913 -0.236045 0.373938
14.9612 -32.6868 492.597 0.886527 -0.246828 0.391338
14.8425 -32.8913 492.706 0.877566 -0.241799 0.414017
14.7333 -33.1133 492.824 0.903464 -0.211104 0.37308
14.635 -33.3555 492.95 0.870195 -0.22108 0.440323
14.513 -33.5529 493.056 0.817521 -0.252335 0.517674
14.3785 -33.7265 493.152 0.823225 -0.252428 0.508508
14.2605 -33.931 493.262 0.816607 -0.246024 0.522135
14.1336 -34.1186 493.364 0.825964 -0.238279 0.510887
14.0162 -34.3234 493.474 0.819282 -0.241284 0.520154
13.8872 -34.5063 493.574 0.787 -0.265875 0.556723
13.7589 -34.6907 493.674 0.777913 -0.292036 0.556387
13.6223 -34.8591 493.768 0.778805 -0.31649 0.541569
13.4874 -35.031 493.862 0.782047 -0.326181 0.531045
13.3455 -35.1889 493.952 0.756547 -0.3281 0.565674
13.2102 -35.3593 494.046 0.7135 -0.345179 0.609729
13.0582 -35.4985 494.127 0.739249 -0.33233 0.585721
12.9257 -35.6735 494.223 0.744843 -0.318166 0.586498
12.7796 -35.8234 494.309 0.718151 -0.328499 0.613472
12.6323 -35.9709 494.393 0.694348 -0.346143 0.630924
12.4781 -36.1055 494.472 0.650809 -0.385808 0.653912
12.3213 -36.2352 494.548 0.661203 -0.383594 0.644721
12.1745 -36.3832 494.633 0.664936 -0.370644 0.648446
12.0191 -36.5153 494.71 0.64643 -0.38416 0.659204
11.8682 -36.6553 494.791 0.657762 -0.39135 0.643579
11.7066 -36.7758 494.864 0.628613 -0.410456 0.660584
11.5454 -36.8968 494.936 0.606537 -0.407733 0.682545
11.3846 -37.0184 495.009 0.577177 -0.416451 0.70245
11.2106 -37.116 495.071 0.572742 -0.429693 0.69809
11.0517 -37.2409 495.146 0.589941 -0.423722 0.687335
10.8759 -37.3351 495.207 0.52201 -0.411955 0.746859
10.7083 -37.4441 495.274 0.514635 -0.419799 0.747609
10.5339 -37.5405 495.336 0.512692 -0.464335 0.722177
10.3514 -37.6224 495.391 0.547972 -0.452069 0.703819
10.1939 -37.7495 495.467 0.516824 -0.438366 0.735343
10.0108 -37.8301 495.522 0.444941 -0.465384 0.765144
9.82652 -37.9085 495.576 0.474089 -0.461383 0.74991
9.65094 -38.0027 495.636 0.456398 -0.449026 0.768164
9.46596 -38.0797 495.69 0.429006 -0.448454 0.784119
9.28415 -38.163 495.746 0.421473 -0.458119 0.782616
9.09923 -38.2397 495.799 0.409161 -0.48419 0.7734
8.91376 -38.3164 495.852 0.411599 -0.499747 0.762128
8.72766 -38.3916 495.905 0.368642 -0.524319 0.767589
8.53492 -38.455 495.952 0.358142 -0.520242 0.775295
8.34633 -38.5254 496.002 0.349494 -0.507605 0.787522
8.14372 -38.5711 496.042 0.299366 -0.517809 0.801408
7.94391 -38.6218 496.084 0.340652 -0.50095 0.795616
7.75074 -38.6844 496.131 0.347337 -0.493807 0.79719
7.55253 -38.738 496.174 0.33299 -0.502209 0.798062
7.35588 -38.7945 496.218 0.366538 -0.489328 0.791333
7.16975 -38.8708 496.271 0.360247 -0.488579 0.794678
6.969 -38.9177 496.311 0.297328 -0.505911 0.809722
6.77957 -38.9884 496.362 0.165752 -0.58058 0.797153
6.55199 -38.99 496.382 0.120002 -0.613578 0.780462
6.32498 -38.9927 496.403 0.0905817 -0.560517 0.823174
6.0926 -38.9861 496.42 0.190844 -0.50125 0.843995
5.89999 -39.0501 496.467 0.173428 -0.497874 0.849732
5.65619 -39.0222 496.476 -0.00398484 -0.545874 0.837858
5.42403 -39.0178 496.493 0.0484349 -0.577444 0.814992
5.20198 -39.03 496.518 0.0487502 -0.583816 0.810421
4.94852 -38.987 496.519 0.151307 -0.528931 0.835068
4.75005 -39.0412 496.562 0.113273 -0.496213 0.86078
4.49884 -39.0025 496.565 0.0638116 -0.501052 0.863061
4.28619 -39.0303 496.598 0.0353826 -0.492511 0.869587
4.0306 -38.9887 496.596 -0.0360927 -0.535049 0.84405
3.80202 -38.9877 496.617 0.0447623 -0.545991 0.836595
3.57597 -38.9939 496.64 -0.0110162 -0.551906 0.833834
3.31968 -38.9467 496.639 -0.0725839 -0.567759 0.819989
3.07105 -38.9145 496.645 -0.0900288 -0.556827 0.825735
2.80782 -38.8556 496.639 -0.0846154 -0.576324 0.812829
2.56789 -38.8385 496.651 -0.0930781 -0.573329 0.814021
2.29365 -38.7622 496.637 -0.18837 -0.556387 0.80929
2.02457 -38.6919 496.628 -0.211845 -0.591082 0.778295
1.73921 -38.5995 496.605 -0.162832 -0.602664 0.781206
1.48377 -38.5559 496.606 -0.147644 -0.571724 0.807052
1.21436 -38.4884 496.597 -0.208948 -0.567104 0.796702
0.917051 -38.3729 496.566 -0.264299 -0.546607 0.794586
0.629557 -38.2751 496.543 -0.22285 -0.531418 0.817272
0.357286 -38.2037 496.532 -0.205477 -0.535119 0.819406
0.0864585 -38.1352 496.522 -0.288793 -0.525614 0.800205
-0.248806 -37.9555 496.464 -0.326842 -0.503275 0.799931
-0.540623 -37.8515 496.438 -0.328685 -0.525246 0.784909
-0.837855 -37.7341 496.41 -0.38834 -0.563732 0.728971
-1.18616 -37.5378 496.341 -0.409674 -0.579373 0.704624
-1.51344 -37.3739 496.29 -0.430269 -0.547208 0.717936
-1.86619 -37.1666 496.22 -0.482207 -0.532019 0.696012
-2.24508 -36.9149 496.13 -0.509005 -0.548097 0.663704
-2.65039 -36.6185 496.021 -0.580283 -0.494753 0.646909
-3.12551 -36.203 495.86 -0.572208 -0.488312 0.658885
-3.45993 -36.0299 495.804 -0.50219 -0.591261 0.631043
-3.85489 -35.7535 495.704 -0.522266 -0.56743 0.636601
-4.27302 -35.4382 495.587 -0.54645 -0.440104 0.712532
15.5886 -30.7401 491.831 0.94979 -0.0676342 0.30549
15.5056 -31.0146 491.971 0.926888 -0.0819587 0.366281
15.4041 -31.2537 492.096 0.93113 -0.0668475 0.358509
15.3527 -31.5871 492.262 0.898647 -0.0751676 0.432184
15.248 -31.8195 492.384 0.875809 -0.133315 0.463882
15.1568 -32.0767 492.517 0.89667 -0.159525 0.412959
15.0553 -32.3142 492.641 0.872272 -0.188436 0.451257
14.9399 -32.5253 492.753 0.867541 -0.232159 0.439857
14.8269 -32.7406 492.867 0.889094 -0.258881 0.377481
14.7198 -32.9666 492.986 0.89287 -0.245342 0.377612
14.5947 -33.1587 493.09 0.861896 -0.251266 0.440455
14.4723 -33.3556 493.196 0.829556 -0.26665 0.490647
14.3549 -33.5615 493.306 0.827767 -0.288039 0.481493
14.2211 -33.7364 493.403 0.837396 -0.287878 0.464643
14.1031 -33.9406 493.512 0.831199 -0.256176 0.49344
13.9744 -34.1246 493.613 0.816976 -0.248924 0.520179
13.8515 -34.3193 493.718 0.797321 -0.253045 0.547949
13.7199 -34.4974 493.816 0.788114 -0.262796 0.556609
13.5959 -34.6894 493.92 0.773795 -0.278212 0.56907
13.4577 -34.855 494.012 0.758759 -0.32032 0.567168
13.3189 -35.0187 494.104 0.74607 -0.347105 0.568241
13.1679 -35.1606 494.185 0.723424 -0.349433 0.595444
13.0267 -35.3199 494.275 0.735645 -0.347897 0.581201
12.88 -35.469 494.36 0.741848 -0.337958 0.579177
12.7389 -35.6281 494.449 0.721245 -0.336296 0.605566
12.5963 -35.7843 494.537 0.7026 -0.341224 0.624435
12.4523 -35.938 494.624 0.655145 -0.382628 0.651446
12.2868 -36.0517 494.693 0.655283 -0.400568 0.640429
12.1325 -36.1861 494.772 0.66697 -0.37261 0.645223
11.9767 -36.3174 494.849 0.653709 -0.358813 0.666272
11.8229 -36.4523 494.928 0.641844 -0.349958 0.682323
11.6693 -36.5875 495.007 0.585958 -0.347245 0.73217
11.4989 -36.692 495.072 0.577146 -0.354522 0.735674
11.3392 -36.8157 495.146 0.58223 -0.392418 0.712051
11.1776 -36.9359 495.218 0.578776 -0.43376 0.690558
11.008 -37.0416 495.284 0.537255 -0.451881 0.712152
10.8267 -37.1258 495.341 0.530107 -0.421429 0.735788
10.6667 -37.2488 495.414 0.561559 -0.396669 0.726158
10.5026 -37.364 495.484 0.513801 -0.440336 0.736283
10.3292 -37.4625 495.547 0.519042 -0.486886 0.702522
10.1451 -37.5414 495.601 0.517952 -0.475675 0.710957
9.9732 -37.6424 495.665 0.454544 -0.455793 0.765273
9.78939 -37.722 495.719 0.446698 -0.457615 0.768797
9.60625 -37.8026 495.774 0.445157 -0.471857 0.761043
9.42111 -37.8797 495.828 0.445279 -0.483544 0.7536
9.24299 -37.9693 495.887 0.451171 -0.468595 0.759515
9.06214 -38.0541 495.943 0.427153 -0.466898 0.774304
8.87689 -38.1309 495.996 0.416397 -0.472716 0.776629
8.69153 -38.2074 496.05 0.354467 -0.499905 0.79022
8.48306 -38.2429 496.085 0.335365 -0.506374 0.794428
8.2914 -38.3075 496.133 0.335143 -0.47532 0.813481
8.09472 -38.3642 496.177 0.292223 -0.484653 0.82445
7.8929 -38.4115 496.217 0.336213 -0.513909 0.789214
7.70576 -38.4848 496.269 0.353801 -0.508516 0.785007
7.51065 -38.5442 496.315 0.331389 -0.49547 0.802926
7.31738 -38.6068 496.362 0.361884 -0.485934 0.795555
7.12448 -38.6701 496.409 0.353286 -0.485927 0.799415
6.93213 -38.7349 496.457 0.346982 -0.499996 0.793478
6.73894 -38.7967 496.504 0.195844 -0.554521 0.808796
6.49854 -38.7761 496.514 0.0470609 -0.575237 0.816632
6.26668 -38.7703 496.532 0.0471435 -0.562766 0.825271
6.03051 -38.7571 496.545 0.180797 -0.530771 0.828006
5.83361 -38.8137 496.59 0.185681 -0.500981 0.845305
5.6115 -38.8257 496.615 0.0498013 -0.49533 0.867276
5.37975 -38.8207 496.632 0.0598621 -0.530488 0.845576
5.14254 -38.8063 496.646 0.0102571 -0.566738 0.823834
4.90512 -38.7928 496.659 0.0944459 -0.588363 0.803062
4.69087 -38.8198 496.69 0.102007 -0.5743 0.812265
4.45469 -38.806 496.705 0.0396103 -0.565296 0.823937
4.22115 -38.796 496.723 0.0680628 -0.581037 0.811026
4.0044 -38.8212 496.751 -0.00889855 -0.559712 0.828639
3.74137 -38.7624 496.745 0.0395737 -0.543425 0.838524
3.52293 -38.7822 496.774 -0.000139951 -0.528968 0.848642
3.26234 -38.7301 496.769 -0.0839857 -0.541965 0.836194
3.0136 -38.6953 496.775 -0.0671267 -0.564656 0.822592
2.7727 -38.6775 496.786 -0.0866995 -0.56624 0.819668
2.50272 -38.6021 496.778 -0.121187 -0.560283 0.819388
2.24672 -38.5642 496.776 -0.152771 -0.566184 0.809998
1.98337 -38.5041 496.771 -0.196317 -0.585741 0.786363
1.70956 -38.4251 496.759 -0.193133 -0.588931 0.784768
1.43288 -38.3479 496.743 -0.160014 -0.581576 0.797599
1.16615 -38.2859 496.736 -0.237383 -0.577593 0.781048
0.869366 -38.1714 496.706 -0.27645 -0.545186 0.791422
0.576434 -38.0637 496.679 -0.21847 -0.535658 0.815685
0.303668 -37.992 496.667 -0.229841 -0.560904 0.795336
-0.0109624 -37.8477 496.624 -0.315779 -0.53142 0.786051
-0.312227 -37.727 496.592 -0.314041 -0.530292 0.787508
-0.60709 -37.6221 496.563 -0.29626 -0.549483 0.781216
-0.920163 -37.4775 496.523 -0.362012 -0.534409 0.763776
-1.23738 -37.3306 496.479 -0.411009 -0.510445 0.755326
-1.60057 -37.1048 496.401 -0.415329 -0.483381 0.770613
-1.93601 -36.9274 496.343 -0.451675 -0.494679 0.742484
-2.30041 -36.7008 496.265 -0.523952 -0.501071 0.688769
-2.71906 -36.3814 496.146 -0.588265 -0.502953 0.633232
-3.1515 -36.0393 496.017 -0.541685 -0.551031 0.634777
-3.47634 -35.8826 495.969 -0.517877 -0.593549 0.616038
-3.91236 -35.5358 495.838 -0.604597 -0.558591 0.567837
-4.38666 -35.1243 495.68 -0.580041 -0.495533 0.646529
15.5344 -30.5152 491.96 0.957174 -0.112267 0.26686
15.4689 -30.8231 492.115 0.928277 -0.0915502 0.360444
15.3907 -31.1066 492.259 0.9283 -0.102168 0.35752
15.2869 -31.341 492.382 0.926321 -0.0947196 0.364634
15.2147 -31.6348 492.53 0.895975 -0.106408 0.431169
15.1098 -31.8664 492.652 0.884622 -0.142408 0.444032
15.0035 -32.0953 492.772 0.877692 -0.149006 0.455471
14.9135 -32.3542 492.905 0.872494 -0.159691 0.461794
14.8092 -32.5861 493.027 0.86163 -0.209278 0.462381
14.6804 -32.7716 493.128 0.858161 -0.226348 0.460788
14.5793 -33.0086 493.251 0.849127 -0.262312 0.45845
14.4466 -33.1863 493.349 0.849677 -0.275823 0.449411
14.3343 -33.4018 493.463 0.829431 -0.270907 0.488521
14.2004 -33.5767 493.56 0.811515 -0.307699 0.496755
14.0662 -33.751 493.656 0.829671 -0.296596 0.472946
13.9426 -33.9443 493.761 0.813028 -0.269378 0.51616
13.8106 -34.1224 493.858 0.802154 -0.260818 0.537143
13.6858 -34.3133 493.961 0.792853 -0.268185 0.54723
13.547 -34.4783 494.053 0.789471 -0.254459 0.558558
13.4311 -34.6851 494.163 0.754294 -0.276047 0.595684
13.2793 -34.8251 494.245 0.714858 -0.314088 0.624761
13.1446 -34.9969 494.339 0.726548 -0.335894 0.599419
12.9966 -35.1439 494.423 0.736271 -0.362377 0.571478
12.8571 -35.3063 494.514 0.73441 -0.367416 0.570656
12.7073 -35.4496 494.597 0.722343 -0.363607 0.588226
12.5582 -35.594 494.68 0.709226 -0.336598 0.619436
12.4103 -35.7404 494.763 0.662823 -0.349573 0.662166
12.2574 -35.8776 494.843 0.627766 -0.389383 0.674011
12.0951 -35.9972 494.915 0.645795 -0.386613 0.658392
11.942 -36.1337 494.995 0.646414 -0.390944 0.655219
11.7789 -36.2517 495.066 0.618812 -0.407164 0.671781
11.6076 -36.3546 495.131 0.604534 -0.389296 0.694973
11.4573 -36.496 495.212 0.629821 -0.363064 0.686666
11.3094 -36.6414 495.295 0.623849 -0.376862 0.684681
11.145 -36.7568 495.366 0.562663 -0.401019 0.722907
10.9737 -36.8593 495.43 0.489136 -0.434353 0.756362
10.7905 -36.9401 495.485 0.531069 -0.460381 0.711347
10.6255 -37.0542 495.555 0.594867 -0.428228 0.680261
10.4591 -37.1654 495.623 0.563215 -0.40206 0.721898
10.2969 -37.2841 495.694 0.487622 -0.423628 0.76339
10.1122 -37.3622 495.748 0.448334 -0.453592 0.770227
9.927 -37.4393 495.802 0.453369 -0.460096 0.763392
9.74359 -37.5196 495.856 0.462896 -0.452062 0.762474
9.57487 -37.6265 495.923 0.459678 -0.468666 0.754353
9.38959 -37.7034 495.976 0.430177 -0.488303 0.759281
9.2007 -37.7737 496.027 0.437788 -0.480183 0.76011
9.01532 -37.8505 496.08 0.429762 -0.471302 0.770182
8.8308 -37.9287 496.134 0.419169 -0.46831 0.777807
8.64548 -38.0054 496.187 0.35284 -0.493109 0.795203
8.45155 -38.0668 496.233 0.295919 -0.521549 0.800261
8.24481 -38.1051 496.27 0.331473 -0.502931 0.798239
8.05648 -38.1765 496.321 0.351498 -0.490186 0.797601
7.86959 -38.2506 496.373 0.339136 -0.526227 0.77979
7.6635 -38.291 496.41 0.327469 -0.521882 0.787657
7.46547 -38.3437 496.453 0.332589 -0.488441 0.806728
7.2697 -38.4029 496.498 0.357983 -0.488204 0.79593
7.08073 -38.4729 496.549 0.372297 -0.507368 0.777156
6.88901 -38.5393 496.597 0.358816 -0.51302 0.779783
6.69453 -38.5987 496.643 0.179683 -0.534212 0.826034
6.46495 -38.5975 496.662 0.0345281 -0.538302 0.842044
6.23068 -38.5875 496.677 0.0437977 -0.569907 0.820541
6.0037 -38.5907 496.699 0.143006 -0.607622 0.781246
5.78655 -38.6114 496.727 0.132217 -0.556921 0.819974
5.53936 -38.579 496.733 0.0957409 -0.528957 0.843231
5.33719 -38.6266 496.774 0.0943073 -0.545888 0.832534
5.1044 -38.6189 496.791 0.054204 -0.580568 0.812406
4.88696 -38.6392 496.82 0.076481 -0.621983 0.779287
4.64347 -38.6157 496.828 0.0737025 -0.598402 0.797799
4.42247 -38.6305 496.854 0.064607 -0.586748 0.807188
4.19376 -38.6318 496.875 0.0234776 -0.591238 0.806155
3.92989 -38.5714 496.868 -0.0180905 -0.564492 0.825241
3.70351 -38.5784 496.89 0.0103707 -0.56458 0.825313
3.45874 -38.549 496.9 -0.00387077 -0.558519 0.829483
3.22064 -38.5362 496.913 -0.0587005 -0.569336 0.820007
2.97276 -38.5037 496.919 -0.0708093 -0.582764 0.80955
2.70766 -38.4437 496.912 -0.0971813 -0.561702 0.821613
2.46113 -38.4151 496.919 -0.118235 -0.565509 0.816223
2.19563 -38.3537 496.912 -0.132757 -0.562523 0.816053
1.93029 -38.2952 496.905 -0.185171 -0.552524 0.812668
1.64367 -38.1955 496.883 -0.19019 -0.550111 0.813145
1.38584 -38.1478 496.882 -0.161898 -0.55017 0.819208
1.11231 -38.0716 496.87 -0.271754 -0.57303 0.773167
0.786831 -37.9095 496.818 -0.293764 -0.584795 0.75612
0.520824 -37.8487 496.812 -0.198269 -0.562718 0.80252
0.2492 -37.7787 496.802 -0.257209 -0.529624 0.808296
-0.0551596 -37.6523 496.767 -0.313838 -0.522083 0.793054
-0.358669 -37.5278 496.732 -0.294144 -0.529788 0.79549
-0.66157 -37.4019 496.699 -0.311793 -0.546806 0.777038
-0.966523 -37.2786 496.664 -0.387949 -0.542822 0.744875
-1.33718 -37.0394 496.58 -0.444692 -0.536803 0.717002
-1.67622 -36.8554 496.52 -0.42798 -0.539581 0.725042
-2.00418 -36.691 496.469 -0.452367 -0.514239 0.728644
-2.39661 -36.4162 496.369 -0.513428 -0.491398 0.703505
-2.77554 -36.1652 496.28 -0.557952 -0.488001 0.671226
-3.21199 -35.8162 496.149 -0.501486 -0.515512 0.694808
-3.53263 -35.6667 496.104 -0.503088 -0.53361 0.679825
-3.95693 -35.34 495.982 -0.629218 -0.526356 0.571869
-4.46669 -34.8678 495.798 -0.619817 -0.532459 0.576468
15.2645 -31.1767 492.537 0.914196 -0.108356 0.390518
15.1655 -31.4202 492.664 0.901267 -0.0940871 0.422925
15.0817 -31.6919 492.802 0.868569 -0.118714 0.481139
14.9711 -31.9126 492.919 0.886346 -0.159468 0.434696
14.8673 -32.1459 493.041 0.896159 -0.15783 0.414715
14.7651 -32.3817 493.164 0.859984 -0.187155 0.474765
14.655 -32.6025 493.28 0.863942 -0.199244 0.4625
14.5481 -32.8289 493.399 0.833989 -0.207379 0.511328
14.4161 -33.0079 493.498 0.814047 -0.250247 0.524122
14.2913 -33.2002 493.602 0.831876 -0.243635 0.498622
14.1754 -33.4089 493.713 0.796005 -0.256596 0.54821
14.0444 -33.5892 493.811 0.791257 -0.302717 0.531295
13.9019 -33.7477 493.9 0.81048 -0.303268 0.501148
13.7813 -33.9471 494.007 0.809374 -0.279202 0.516681
13.6459 -34.1175 494.104 0.786346 -0.288454 0.54631
13.5154 -34.2985 494.201 0.794721 -0.283654 0.536618
13.3782 -34.466 494.294 0.76274 -0.279684 0.583099
13.2423 -34.6361 494.388 0.734087 -0.285563 0.616092
13.1064 -34.8057 494.482 0.740108 -0.287023 0.608159
12.9697 -34.9736 494.575 0.711597 -0.296618 0.636905
12.8204 -35.1181 494.658 0.696902 -0.312682 0.645413
12.6739 -35.2676 494.743 0.671811 -0.340477 0.657833
12.515 -35.3941 494.818 0.686845 -0.336473 0.644229
12.3755 -35.5561 494.909 0.679962 -0.344613 0.64722
12.2152 -35.6798 494.983 0.629372 -0.365988 0.685524
12.0606 -35.8137 495.061 0.642201 -0.362718 0.675288
11.9077 -35.9507 495.14 0.639408 -0.376442 0.670409
11.75 -36.0788 495.216 0.593043 -0.426784 0.682756
11.5848 -36.193 495.286 0.613577 -0.457339 0.643712
11.4197 -36.3072 495.355 0.665008 -0.428134 0.611937
11.2604 -36.4321 495.43 0.618678 -0.401526 0.675288
11.0914 -36.5389 495.496 0.550374 -0.381038 0.742898
10.9265 -36.6534 495.566 0.537615 -0.399624 0.742476
10.7675 -36.7785 495.64 0.535019 -0.460578 0.708254
10.5868 -36.864 495.697 0.550316 -0.464409 0.693885
10.4176 -36.9704 495.763 0.54522 -0.413797 0.729045
10.2389 -37.0594 495.822 0.497551 -0.405598 0.766768
10.067 -37.1607 495.886 0.456112 -0.439165 0.774013
9.88776 -37.2487 495.944 0.450684 -0.469609 0.759178
9.70912 -37.3372 496.002 0.485175 -0.463097 0.741718
9.52948 -37.4252 496.061 0.462289 -0.443629 0.767778
9.34438 -37.5023 496.114 0.417342 -0.457044 0.785453
9.16329 -37.5868 496.17 0.422143 -0.482447 0.76749
8.97788 -37.6636 496.224 0.41976 -0.470274 0.776302
8.79251 -37.7404 496.277 0.413877 -0.452308 0.790015
8.6062 -37.8156 496.329 0.360102 -0.468249 0.806889
8.40385 -37.8618 496.369 0.284808 -0.496724 0.819848
8.20164 -37.9086 496.41 0.323686 -0.499019 0.80387
8.01189 -37.9772 496.459 0.392125 -0.484393 0.78205
7.82229 -38.0467 496.509 0.322549 -0.485412 0.812611
7.61745 -38.0887 496.547 0.283194 -0.497445 0.819969
7.4203 -38.145 496.592 0.34299 -0.477951 0.808654
7.23448 -38.2208 496.644 0.38396 -0.454712 0.803624
7.04893 -38.2974 496.698 0.369742 -0.487306 0.791091
6.84955 -38.3494 496.74 0.313195 -0.528122 0.789301
6.64108 -38.3852 496.775 0.141464 -0.543363 0.827493
6.39612 -38.3561 496.783 0.0779039 -0.511384 0.855814
6.19223 -38.4003 496.822 0.116242 -0.520711 0.845782
5.96568 -38.4043 496.843 0.0770479 -0.561351 0.823984
5.72421 -38.382 496.853 0.0851084 -0.563915 0.821436
5.5219 -38.4293 496.894 0.115689 -0.581427 0.805331
5.28145 -38.4091 496.905 0.129012 -0.565392 0.81467
5.07115 -38.4425 496.939 0.113159 -0.553527 0.825108
4.83742 -38.4345 496.955 0.0506376 -0.55086 0.83306
4.60319 -38.4259 496.971 0.0591295 -0.56081 0.82583
4.37759 -38.4326 496.994 0.0616138 -0.588435 0.806193
4.13084 -38.4022 497.001 -0.0139962 -0.558292 0.829527
3.90327 -38.4047 497.023 -0.0139765 -0.577993 0.815922
3.65453 -38.3724 497.028 -0.00255937 -0.591708 0.806148
3.4153 -38.3558 497.04 -0.00115293 -0.57191 0.820316
3.17764 -38.3423 497.054 -0.0427754 -0.554026 0.8314
2.91394 -38.2863 497.047 -0.0932381 -0.542502 0.834864
2.66879 -38.2565 497.057 -0.0953806 -0.560782 0.822451
2.40404 -38.1945 497.051 -0.125512 -0.575703 0.807968
2.13912 -38.1362 497.044 -0.152767 -0.576547 0.802656
1.87241 -38.073 497.037 -0.18959 -0.557961 0.80792
1.59811 -37.9951 497.024 -0.186083 -0.544209 0.818052
1.32333 -37.9207 497.01 -0.142194 -0.55157 0.821919
1.06972 -37.8806 497.013 -0.251004 -0.544465 0.800347
0.771112 -37.7623 496.982 -0.313633 -0.589576 0.744335
0.461519 -37.6269 496.943 -0.252845 -0.614499 0.747302
0.170409 -37.5232 496.918 -0.273504 -0.545618 0.792147
-0.137327 -37.3911 496.88 -0.314592 -0.551274 0.772741
-0.438041 -37.2744 496.848 -0.290262 -0.573521 0.766043
-0.715816 -37.1921 496.834 -0.323007 -0.570564 0.755065
-1.0496 -37.0161 496.778 -0.387304 -0.531337 0.753443
-1.35238 -36.8943 496.745 -0.437388 -0.521971 0.732283
-1.72838 -36.6464 496.657 -0.452828 -0.550164 0.701617
-2.08282 -36.4365 496.586 -0.480694 -0.540195 0.69074
-2.45916 -36.1894 496.499 -0.531776 -0.532369 0.658633
-2.8689 -35.8855 496.387 -0.562303 -0.532706 0.632487
-3.27356 -35.5912 496.28 -0.496309 -0.536535 0.682501
-3.60074 -35.4306 496.23 -0.490547 -0.538439 0.685162
-4.00813 -35.1329 496.122 -0.613599 -0.528221 0.586923
-4.50522 -34.6823 495.946 -0.64027 -0.558122 0.527783
15.2103 -30.9524 492.666 0.919322 -0.157105 0.360784
15.1173 -31.2073 492.798 0.917406 -0.143291 0.371261
15.0212 -31.456 492.926 0.917856 -0.132755 0.374054
14.9466 -31.7446 493.073 0.892127 -0.155087 0.424332
14.8324 -31.9587 493.186 0.878389 -0.147698 0.454552
14.741 -32.215 493.318 0.863669 -0.170555 0.474328
14.6098 -32.3962 493.417 0.844008 -0.200772 0.497334
14.4949 -32.6078 493.53 0.845985 -0.196154 0.495816
14.3892 -32.8363 493.65 0.821124 -0.242758 0.51655
14.2566 -33.0134 493.749 0.82039 -0.261653 0.508427
14.1289 -33.2011 493.848 0.829677 -0.249862 0.499205
14.0136 -33.4106 493.96 0.798607 -0.278634 0.53347
13.8826 -33.5908 494.058 0.791602 -0.314123 0.524111
