14.9914 -17.8019 497.436 0.975879 0.0582652 0.210393
14.9403 -17.8925 497.674 0.970559 -0.0196332 0.240061
14.8757 -17.9824 497.92 0.957375 -0.0657296 0.281269
14.7823 -18.0665 498.186 0.961878 -0.071218 0.264041
14.7278 -18.1583 498.426 0.977383 -0.0664347 0.200772
14.6354 -18.2397 498.692 0.954621 -0.106037 0.278309
14.5554 -18.3242 498.949 0.963147 -0.107778 0.246439
14.5433 -18.4264 499.162 0.997135 -0.0606001 0.045268
14.5187 -18.5255 499.383 0.997376 -0.0619819 0.0374158
14.5223 -18.6306 499.585 0.96043 -0.101061 0.25954
14.3526 -18.6954 499.902 0.927036 -0.0934448 0.363144
14.2358 -18.7733 500.185 0.921714 -0.0498824 0.384649
14.091 -18.8425 500.486 0.911112 -0.0140732 0.411918
13.9426 -18.9121 500.79 0.903776 -0.0481035 0.425294
13.7858 -18.979 501.099 0.879951 -0.14985 0.450811
13.603 -19.0402 501.427 0.892377 -0.219148 0.39451
13.5703 -19.138 501.654 0.900279 -0.323849 0.290896
13.448 -19.2141 501.941 0.873854 -0.360278 0.326464
13.2893 -19.2815 502.253 0.887179 -0.237364 0.39569
7.6162 -8.50856 488.262 0.389145 0.51087 -0.766536
7.91448 -8.6919 488.279 0.433543 0.478698 -0.763471
8.15016 -8.85854 488.335 0.45743 0.464938 -0.758018
8.3751 -9.02224 488.398 0.44099 0.527144 -0.726393
8.64676 -9.19822 488.431 0.534355 0.579491 -0.615349
8.86779 -9.36072 488.495 0.546637 0.552271 -0.629432
9.11623 -9.53038 488.543 0.554851 0.507985 -0.658856
9.32505 -9.68949 488.615 0.595445 0.489021 -0.63742
9.53554 -9.84897 488.686 0.538695 0.522297 -0.66107
9.7683 -10.0142 488.742 0.567635 0.524546 -0.634541
9.97956 -10.174 488.812 0.595317 0.483015 -0.642101
10.1818 -10.3312 488.887 0.640897 0.473877 -0.603897
10.3807 -10.4868 488.966 0.686235 0.462672 -0.561264
10.5435 -10.6336 489.065 0.653754 0.465385 -0.596676
10.7488 -10.7929 489.136 0.654527 0.466614 -0.594865
10.9054 -10.9362 489.242 0.666405 0.459409 -0.587237
11.1066 -11.0927 489.318 0.686975 0.468649 -0.555368
11.2752 -11.2409 489.414 0.679947 0.457629 -0.572929
11.4644 -11.3937 489.497 0.683749 0.438378 -0.583362
11.6098 -11.5357 489.607 0.696233 0.457138 -0.553429
11.804 -11.6898 489.687 0.704326 0.467079 -0.534567
11.9741 -11.8381 489.781 0.761731 0.43348 -0.481519
12.0828 -11.9702 489.915 0.779324 0.436637 -0.449448
12.246 -12.1165 490.014 0.79233 0.433908 -0.428879
12.3877 -12.2571 490.126 0.823708 0.372233 -0.427724
12.4982 -12.3895 490.258 0.813517 0.37974 -0.440439
12.6233 -12.5258 490.381 0.801337 0.430714 -0.415143
12.7776 -12.6688 490.486 0.816514 0.399502 -0.416776
12.8837 -12.8007 490.62 0.878288 0.331346 -0.344703
12.9549 -12.923 490.777 0.833933 0.392257 -0.388189
13.1402 -13.0746 490.861 0.817205 0.387904 -0.426269
13.2402 -13.2042 491 0.846057 0.319775 -0.426535
13.3662 -13.3405 491.121 0.817789 0.37447 -0.437027
13.4738 -13.4721 491.255 0.869216 0.392 -0.301329
13.5742 -13.6017 491.393 0.886091 0.368606 -0.28102
13.6832 -13.7336 491.526 0.898484 0.313107 -0.307719
13.7861 -13.8639 491.662 0.920703 0.261199 -0.289966
13.8592 -13.9865 491.818 0.888171 0.307574 -0.341395
13.9651 -14.1175 491.952 0.882845 0.340296 -0.323701
14.0467 -14.2423 492.102 0.923045 0.294002 -0.248094
14.125 -14.3662 492.254 0.935259 0.266378 -0.233096
14.1949 -14.488 492.412 0.942636 0.241842 -0.230109
14.2645 -14.6097 492.57 0.957016 0.194316 -0.215318
14.3183 -14.7274 492.738 0.957826 0.174293 -0.228452
14.387 -14.8489 492.896 0.948811 0.174697 -0.263134
14.446 -14.9679 493.061 0.956819 0.179974 -0.228269
14.5152 -15.0895 493.219 0.960751 0.197326 -0.194986
14.5709 -15.2076 493.385 0.978766 0.167522 -0.118124
14.5951 -15.318 493.573 0.974019 0.165502 -0.154583
14.6644 -15.4396 493.73 0.928624 0.224066 -0.295721
14.734 -15.5613 493.888 0.932506 0.274881 -0.234252
14.7902 -15.6797 494.055 0.968802 0.239547 -0.0635556
14.8257 -15.7929 494.235 0.977641 0.190139 -0.0898055
14.8835 -15.9116 494.4 0.985843 0.12812 -0.108163
14.8874 -16.0168 494.601 0.988868 0.091665 -0.117205
14.9297 -16.132 494.777 0.97427 0.166457 -0.151952
14.9605 -16.2436 494.959 0.991274 0.109499 0.0733858
14.9099 -16.3357 495.195 0.982914 0.0512238 0.176793
14.9004 -16.4374 495.405 0.995577 0.0761806 0.0549773
14.9288 -16.549 495.59 0.983349 0.139413 -0.116574
14.9901 -16.6687 495.753 0.975127 0.185144 -0.121859
15.0117 -16.7786 495.943 0.991655 0.128295 -0.0127121
15.0231 -16.886 496.139 0.994763 0.0811721 0.0621181
14.9979 -16.9842 496.359 0.991359 0.130731 0.0108117
15.0432 -17.1001 496.533 0.993823 0.10799 0.0255664
15.0194 -17.1988 496.752 0.994398 0.0322149 0.100676
14.9719 -17.2916 496.987 0.994965 0.0671146 0.0744316
14.9863 -17.3999 497.181 0.992996 0.0770266 0.0895893
14.966 -17.4996 497.399 0.992661 0.0499036 0.110156
14.9509 -17.6006 497.613 0.987646 0.0287626 0.154037
14.9076 -17.6947 497.845 0.971362 -0.00980996 0.237404
14.8244 -17.7787 498.104 0.961824 -0.071734 0.264101
14.7605 -17.8682 498.351 0.971197 -0.0959626 0.218099
14.7155 -17.9621 498.585 0.970662 -0.139101 0.196128
14.6577 -18.0529 498.827 0.949583 -0.230695 0.212301
14.5757 -18.1382 499.086 0.971004 -0.204293 0.124162
14.5501 -18.2381 499.308 0.998026 -0.0405085 0.0479896
14.5543 -18.3428 499.51 0.982117 0.00130513 0.188266
14.3916 -18.4072 499.822 0.934328 -0.0155094 0.356076
14.296 -18.49 500.091 0.910061 -0.0564219 0.410615
14.1247 -18.5534 500.41 0.904713 -0.130916 0.405407
13.9767 -18.6226 500.713 0.916149 -0.178032 0.359131
13.9049 -18.7108 500.966 0.905868 -0.284754 0.313558
13.7894 -18.788 501.249 0.871936 -0.376675 0.3128
13.6938 -18.8704 501.518 0.899903 -0.369637 0.231394
13.5901 -18.9509 501.793 0.907108 -0.305898 0.289105
7.64602 -8.3222 488.391 0.392137 0.543272 -0.74235
7.90134 -8.49424 488.435 0.472849 0.564611 -0.676482
8.16579 -8.66863 488.473 0.554337 0.54802 -0.626406
8.362 -8.8248 488.553 0.536244 0.525828 -0.660263
8.60212 -8.99255 488.606 0.487489 0.537002 -0.688464
8.87795 -9.16967 488.636 0.483491 0.514127 -0.708456
9.13029 -9.34047 488.681 0.544278 0.487725 -0.682558
9.31852 -9.49423 488.766 0.604187 0.481297 -0.635068
9.52837 -9.65363 488.837 0.543821 0.498234 -0.675294
9.77827 -9.82354 488.883 0.521434 0.493076 -0.696407
10.013 -9.98935 488.939 0.601129 0.461284 -0.652581
10.1751 -10.1353 489.04 0.648257 0.452213 -0.61259
10.3606 -10.2884 489.126 0.672222 0.470471 -0.571643
10.5384 -10.4393 489.216 0.661841 0.486879 -0.570014
10.7354 -10.5949 489.294 0.660501 0.490999 -0.568031
10.9233 -10.748 489.379 0.690621 0.465658 -0.553359
11.0778 -10.892 489.484 0.667572 0.458499 -0.586623
11.2786 -11.0488 489.559 0.667644 0.479328 -0.569645
11.4519 -11.1979 489.652 0.717236 0.462057 -0.52161
11.6072 -11.3426 489.756 0.70838 0.438493 -0.553102
11.7799 -11.4909 489.85 0.703214 0.448174 -0.551934
11.9197 -11.6316 489.963 0.779294 0.44507 -0.44115
12.0757 -11.7761 490.067 0.785819 0.426919 -0.44747
12.2106 -11.915 490.184 0.756945 0.441759 -0.481544
12.3757 -12.0617 490.281 0.82429 0.400096 -0.400586
12.4615 -12.1878 490.429 0.850918 0.354664 -0.387495
12.5986 -12.3272 490.544 0.78067 0.416534 -0.46589
12.7497 -12.4702 490.651 0.808804 0.402808 -0.428464
12.8642 -12.6038 490.78 0.890524 0.335583 -0.307165
12.9606 -12.7325 490.921 0.815818 0.385055 -0.431478
13.1213 -12.8778 491.021 0.781762 0.411012 -0.468954
13.2399 -13.0123 491.147 0.86986 0.355869 -0.341615
13.3213 -13.1372 491.298 0.877882 0.361558 -0.314006
13.4168 -13.2656 491.439 0.865532 0.392105 -0.311623
13.5439 -13.4022 491.56 0.852895 0.388349 -0.348934
13.6619 -13.5364 491.687 0.881057 0.366566 -0.298946
13.7351 -13.6591 491.843 0.919959 0.309917 -0.240056
13.8109 -13.7825 491.997 0.907199 0.295302 -0.299643
13.913 -13.9126 492.134 0.888037 0.322376 -0.327816
14.0167 -14.0431 492.27 0.916833 0.30683 -0.255486
14.0868 -14.1649 492.427 0.925199 0.305716 -0.22482
14.1804 -14.2929 492.57 0.926883 0.308008 -0.214521
14.2534 -14.4154 492.725 0.943043 0.278557 -0.181869
14.3231 -14.5372 492.883 0.947212 0.25459 -0.194868
14.3928 -14.659 493.041 0.95575 0.221427 -0.193681
14.4385 -14.7745 493.214 0.965458 0.200548 -0.166345
14.4782 -14.8888 493.391 0.966064 0.207432 -0.153922
14.5221 -15.0039 493.565 0.972274 0.19063 -0.135437
14.5854 -15.1242 493.727 0.96321 0.183079 -0.196745
14.6547 -15.246 493.886 0.958623 0.19324 -0.209045
14.6857 -15.3576 494.068 0.964513 0.202509 -0.169423
14.7457 -15.4772 494.232 0.962208 0.220287 -0.160091
14.8136 -15.5986 494.391 0.963872 0.216226 -0.155554
14.8666 -15.7161 494.56 0.977056 0.173309 -0.1238
14.9223 -15.8343 494.727 0.993709 0.0854318 -0.0724209
14.9131 -15.9364 494.936 0.994407 0.0874945 -0.0591499
14.9328 -16.0454 495.126 0.995912 0.0479121 0.07658
14.8877 -16.1388 495.359 0.994693 0.0329769 0.0974622
14.9221 -16.2516 495.54 0.996634 0.0805125 -0.0154691
14.9157 -16.3544 495.748 0.989503 0.114743 -0.0878481
14.9496 -16.4674 495.929 0.97998 0.176021 -0.0930335
14.9826 -16.5801 496.111 0.990716 0.135751 0.00726053
14.9701 -16.6815 496.323 0.992348 0.0971079 0.0762614
14.9729 -16.7868 496.525 0.991851 0.127389 -0.00185206
15.007 -16.8998 496.706 0.99401 0.10853 0.0128778
14.9879 -16.9997 496.922 0.990481 0.0593819 0.124182
14.9928 -17.1056 497.123 0.995937 0.0373164 0.0819537
14.966 -17.2036 497.345 0.99768 0.0332966 0.0593787
14.9625 -17.3075 497.551 0.994338 0.00572538 0.106104
14.9102 -17.3992 497.789 0.986382 -0.0365885 0.160347
14.8565 -17.4907 498.029 0.979854 -0.0437752 0.194856
14.8309 -17.5891 498.25 0.973665 -0.0857918 0.211226
14.7597 -17.6759 498.502 0.980138 -0.109314 0.165471
14.738 -17.7754 498.72 0.982659 -0.121007 0.140496
14.6824 -17.8675 498.962 0.958819 -0.203718 0.197903
14.5956 -17.9512 499.224 0.962057 -0.171525 0.212193
14.505 -18.0339 499.488 0.977307 0.0274265 0.210047
14.4233 -18.119 499.747 0.944817 0.058973 0.322248
14.3291 -18.1996 500.015 0.932088 -0.0666607 0.356045
14.2318 -18.2825 500.284 0.924997 -0.208571 0.317615
14.1402 -18.3654 500.55 0.901927 -0.317855 0.292395
14.075 -18.4549 500.799 0.902842 -0.386857 0.187666
13.9962 -18.5409 501.057 0.91466 -0.327125 0.237456
13.864 -18.6143 501.351 0.908819 -0.246502 0.336579
13.6963 -18.679 501.668 0.918247 -0.158878 0.36274
7.6175 -8.1202 488.556 0.437755 0.542731 -0.716808
7.8598 -8.28891 488.608 0.473099 0.542284 -0.694338
8.13459 -8.46617 488.64 0.513025 0.528934 -0.676043
8.36752 -8.6322 488.697 0.513455 0.490106 -0.704386
8.64067 -8.80883 488.729 0.429635 0.473526 -0.768887
8.8981 -8.98118 488.771 0.467545 0.488338 -0.736836
9.11502 -9.1427 488.838 0.571213 0.50193 -0.649447
9.32818 -9.30315 488.908 0.595877 0.48624 -0.639141
9.54734 -9.46511 488.973 0.520814 0.480755 -0.705427
9.79164 -9.63364 489.022 0.533 0.512744 -0.673056
9.98834 -9.78888 489.103 0.63619 0.520606 -0.569413
10.1866 -9.94563 489.18 0.690831 0.483274 -0.537772
10.3468 -10.0919 489.281 0.680507 0.454196 -0.574993
10.5325 -10.2447 489.367 0.660697 0.468537 -0.586475
10.7107 -10.3954 489.457 0.651315 0.495834 -0.574402
10.9083 -10.5504 489.537 0.671203 0.474976 -0.569108
11.0959 -10.7036 489.621 0.687272 0.444341 -0.574646
11.2488 -10.8489 489.725 0.678784 0.476299 -0.55892
11.4383 -11.0019 489.808 0.693405 0.49416 -0.5244
11.6236 -11.1541 489.894 0.719219 0.456182 -0.524044
11.7695 -11.295 490.005 0.75107 0.425285 -0.505001
11.9213 -11.4395 490.11 0.76191 0.421096 -0.492108
12.0682 -11.5817 490.219 0.77722 0.406145 -0.4806
12.2018 -11.7203 490.337 0.765919 0.428545 -0.479288
12.3588 -11.865 490.44 0.804795 0.402778 -0.435976
12.4834 -12.0013 490.563 0.850675 0.320378 -0.416785
12.5916 -12.1332 490.696 0.783743 0.377284 -0.493359
12.7515 -12.2786 490.797 0.821903 0.42377 -0.38065
12.8333 -12.4036 490.947 0.870025 0.383886 -0.309333
12.9641 -12.5413 491.066 0.814551 0.382829 -0.435831
13.0916 -12.6782 491.188 0.803504 0.395847 -0.444619
13.2173 -12.8145 491.31 0.882278 0.31687 -0.348109
13.2958 -12.9387 491.462 0.893749 0.27929 -0.351013
13.4231 -13.0754 491.583 0.848963 0.324871 -0.416799
13.5311 -13.2071 491.716 0.860535 0.344756 -0.374998
13.6197 -13.3338 491.862 0.876942 0.335844 -0.343776
13.7535 -13.4721 491.979 0.898809 0.276173 -0.340399
13.844 -13.5993 492.124 0.909066 0.242642 -0.338709
13.9282 -13.7248 492.272 0.903785 0.24133 -0.353459
14 -13.8471 492.428 0.927785 0.246081 -0.280463
14.0698 -13.969 492.586 0.932056 0.265089 -0.246981
14.1397 -14.0909 492.744 0.927869 0.287969 -0.236924
14.2129 -14.2135 492.899 0.932179 0.297699 -0.205955
14.2911 -14.3375 493.052 0.934581 0.295763 -0.197694
14.3608 -14.4593 493.21 0.950279 0.26961 -0.155819
14.4185 -14.5781 493.375 0.965414 0.226519 -0.129095
14.4761 -14.6967 493.541 0.967015 0.191328 -0.16815
14.5452 -14.8184 493.699 0.962237 0.179022 -0.205062
14.5985 -14.9361 493.867 0.963089 0.188696 -0.191975
14.6383 -15.0503 494.045 0.966888 0.197562 -0.161545
14.707 -15.1719 494.203 0.971342 0.175277 -0.160538
14.7445 -15.2855 494.382 0.965557 0.167394 -0.199193
14.7992 -15.4036 494.549 0.962368 0.187244 -0.196944
14.8519 -15.5211 494.718 0.964106 0.227981 -0.136105
14.8972 -15.6368 494.892 0.98179 0.189959 0.00214802
14.8884 -15.7388 495.101 0.989927 0.136078 0.0390774
14.9135 -15.8493 495.288 0.993671 0.0687232 0.0888573
14.8666 -15.9429 495.522 0.997718 0.0350683 0.057694
14.8907 -16.0524 495.71 0.99028 0.138981 -0.0053803
14.9038 -16.1601 495.905 0.981191 0.192341 0.0163821
14.9358 -16.2726 496.087 0.984296 0.16875 -0.0518053
14.9524 -16.3812 496.28 0.996166 0.087477 0.00130367
14.9518 -16.4856 496.484 0.999076 0.0410472 0.0127311
14.969 -16.5944 496.677 0.99693 0.06451 -0.0443772
14.9774 -16.7011 496.875 0.99731 0.0638006 0.0360857
14.9512 -16.7992 497.096 0.995123 0.0658898 0.0734133
14.9569 -16.9053 497.296 0.995609 0.0599731 0.0718769
14.9371 -17.005 497.514 0.997139 0.031217 0.0688392
14.9415 -17.1116 497.715 0.994702 -0.00898451 0.10241
14.8987 -17.2047 497.947 0.983672 -0.0576285 0.170494
14.863 -17.3009 498.175 0.98431 -0.0684697 0.162622
14.7973 -17.3897 498.423 0.982697 -0.0482184 0.178836
14.7699 -17.4876 498.645 0.984482 -0.0277946 0.17327
14.7152 -17.5779 498.886 0.989239 -0.0525228 0.136554
14.7002 -17.6803 499.1 0.951323 -0.209553 0.225991
14.5371 -17.7459 499.413 0.926958 -0.154575 0.341842
14.4106 -17.819 499.702 0.948177 0.00572577 0.317692
14.3592 -17.9115 499.941 0.974366 -0.0161135 0.224391
14.3561 -18.016 500.148 0.968862 -0.142039 0.20281
14.2895 -18.1049 500.397 0.947719 -0.226334 0.224949
14.2165 -18.1921 500.651 0.945639 -0.209684 0.248594
14.0949 -18.2679 500.937 0.932933 -0.130819 0.335445
13.9148 -18.3292 501.263 0.912489 -0.0714538 0.402813
7.63374 -7.93005 488.693 0.437474 0.521207 -0.732775
7.89807 -8.10473 488.732 0.470386 0.536776 -0.700434
8.15384 -8.27704 488.775 0.477299 0.537148 -0.695455
8.41652 -8.45109 488.814 0.473948 0.508598 -0.71882
8.65744 -8.61926 488.866 0.469719 0.497082 -0.729571
8.89262 -8.78581 488.922 0.526262 0.492215 -0.693378
9.10885 -8.94682 488.991 0.5605 0.489141 -0.668267
9.34062 -9.11272 489.047 0.569125 0.520071 -0.636885
9.55865 -9.27448 489.113 0.572779 0.508606 -0.642841
9.74818 -9.42861 489.197 0.59085 0.509084 -0.625883
9.96509 -9.58957 489.264 0.627174 0.528566 -0.572076
10.1602 -9.74541 489.344 0.662578 0.520977 -0.53812
10.3621 -9.90267 489.419 0.69052 0.47763 -0.543186
10.5188 -10.0482 489.523 0.680766 0.446783 -0.580468
10.7047 -10.201 489.608 0.630521 0.468917 -0.618514
10.9197 -10.3609 489.676 0.649684 0.482411 -0.587529
11.0772 -10.5064 489.779 0.718429 0.448024 -0.532104
11.2375 -10.6529 489.88 0.703291 0.45095 -0.549569
11.4131 -10.8019 489.972 0.665932 0.489101 -0.563307
11.6008 -10.9552 490.056 0.712103 0.475775 -0.516282
11.7553 -11.1003 490.159 0.757087 0.442466 -0.480669
11.9088 -11.244 490.265 0.759115 0.429118 -0.489492
12.0568 -11.3862 490.374 0.790006 0.393932 -0.469796
12.1806 -11.5223 490.498 0.763267 0.389246 -0.515665
12.3519 -11.6708 490.592 0.769703 0.432183 -0.469867
12.485 -11.8093 490.709 0.852202 0.371236 -0.368695
12.5764 -11.9369 490.854 0.854386 0.312058 -0.415506
12.6661 -12.0641 490.999 0.826538 0.371716 -0.422685
12.8317 -12.211 491.096 0.824456 0.407099 -0.393119
12.9564 -12.3472 491.219 0.81929 0.399162 -0.411623
13.0837 -12.484 491.34 0.8004 0.400835 -0.445747
13.2408 -12.6286 491.443 0.865005 0.368324 -0.340738
13.3139 -12.7513 491.598 0.89138 0.335272 -0.305015
13.4214 -12.883 491.732 0.873758 0.311078 -0.373867
13.4971 -13.0064 491.886 0.866659 0.317944 -0.384466
13.6551 -13.1511 491.988 0.851074 0.351577 -0.389958
13.732 -13.2748 492.141 0.884936 0.356398 -0.29978
13.8276 -13.4033 492.282 0.901796 0.343829 -0.26181
13.9191 -13.5307 492.426 0.924676 0.291144 -0.245374
13.9891 -13.6526 492.584 0.939805 0.267454 -0.212686
14.0589 -13.7745 492.742 0.940708 0.26547 -0.211173
14.1286 -13.8963 492.899 0.939508 0.267604 -0.213807
14.1979 -14.018 493.057 0.936791 0.266524 -0.226688
14.2677 -14.1399 493.215 0.941117 0.24997 -0.227625
14.3319 -14.2603 493.377 0.949421 0.231725 -0.211902
14.4016 -14.3822 493.535 0.953056 0.216483 -0.211707
14.4698 -14.5036 493.694 0.955321 0.233137 -0.181684
14.5161 -14.6195 493.867 0.958934 0.252282 -0.129615
14.5622 -14.7353 494.04 0.958369 0.26807 -0.0983171
14.6238 -14.8552 494.203 0.951273 0.284061 -0.119959
14.6791 -14.9733 494.37 0.958374 0.240765 -0.153468
14.7432 -15.0937 494.532 0.969668 0.175247 -0.170387
14.7911 -15.2101 494.704 0.980795 0.151786 -0.122486
14.7952 -15.3153 494.904 0.977252 0.200869 -0.0680403
14.8364 -15.43 495.081 0.977608 0.210167 -0.0106446
14.862 -15.5407 495.267 0.985117 0.169048 0.0311168
14.8689 -15.6459 495.467 0.988357 0.136779 0.0666554
14.8873 -15.7558 495.658 0.989326 0.0768091 0.12383
14.8149 -15.8419 495.909 0.991841 0.114528 0.0559811
14.8526 -15.9558 496.088 0.968103 0.248102 -0.0349679
14.9121 -16.0752 496.252 0.966176 0.255437 -0.0354288
14.9505 -16.1893 496.431 0.986592 0.163052 0.00708783
14.9623 -16.2968 496.627 0.992591 0.117163 0.0321756
14.9581 -16.4003 496.834 0.997206 0.0711306 0.0228112
14.9483 -16.5024 497.044 0.99844 0.0259074 0.0494641
14.9451 -16.6062 497.25 0.997422 0.0446562 0.056168
14.9402 -16.7096 497.457 0.999117 0.0315084 0.0277962
14.9495 -16.8158 497.656 0.999227 -0.0261352 0.029355
14.9202 -16.9142 497.879 0.994546 -0.0513773 0.0907648
14.8867 -17.0106 498.105 0.985932 -0.0504262 0.159356
14.8293 -17.101 498.347 0.978958 -0.0410414 0.19989
14.7775 -17.1934 498.586 0.978475 -0.00899446 0.20617
14.7184 -17.2841 498.83 0.990394 -0.00212794 0.138258
14.733 -17.3908 499.025 0.996617 -0.0622438 0.0536755
14.716 -17.4926 499.241 0.921839 -0.212384 0.324201
14.4434 -17.5304 499.626 0.895228 -0.174713 0.40993
14.391 -17.6229 499.866 0.973395 -0.00982186 0.228923
14.3885 -17.7252 500.072 0.994834 -0.0237256 0.0987084
14.3478 -17.8203 500.304 0.976382 -0.163172 0.141612
14.2569 -17.9052 500.57 0.94862 -0.16835 0.267914
14.1285 -17.9764 500.861 0.920887 -0.0585824 0.385403
7.60693 -7.72829 488.858 0.479195 0.550419 -0.683675
7.86522 -7.90149 488.9 0.474268 0.539052 -0.696055
8.12009 -8.07368 488.944 0.443832 0.531029 -0.721818
8.41912 -8.25756 488.96 0.479404 0.546243 -0.686869
8.64537 -8.42192 489.022 0.515599 0.559334 -0.649078
8.92624 -8.60074 489.049 0.553646 0.529554 -0.642689
9.10513 -8.75166 489.141 0.601742 0.49418 -0.627449
9.30541 -8.90996 489.216 0.557868 0.520373 -0.646526
9.55226 -9.07906 489.265 0.581421 0.507076 -0.636257
9.7574 -9.23742 489.339 0.622354 0.47576 -0.621553
9.93772 -9.38913 489.428 0.626897 0.491974 -0.60412
10.1378 -9.54607 489.505 0.62535 0.509437 -0.59111
10.3417 -9.70385 489.58 0.657601 0.501554 -0.562142
10.5346 -9.85872 489.661 0.6841 0.47702 -0.551778
10.7116 -10.0093 489.752 0.649601 0.44606 -0.615669
10.8785 -10.1562 489.851 0.648081 0.463349 -0.604399
11.0916 -10.3172 489.917 0.714042 0.458942 -0.528693
11.2275 -10.4576 490.033 0.717666 0.426693 -0.550353
11.4095 -10.6085 490.122 0.673477 0.463972 -0.575464
11.5845 -10.7583 490.214 0.704337 0.46492 -0.536431
11.7478 -10.905 490.313 0.741595 0.426475 -0.517837
11.8994 -11.0479 490.42 0.745629 0.426009 -0.512399
12.064 -11.1951 490.518 0.771524 0.428036 -0.470676
12.2111 -11.3377 490.626 0.810058 0.382791 -0.444158
12.2918 -11.4626 490.778 0.776435 0.421363 -0.468617
12.4818 -11.6161 490.859 0.807698 0.442444 -0.389701
12.5984 -11.7503 490.988 0.879987 0.355093 -0.315487
12.7085 -11.8828 491.12 0.850378 0.282054 -0.444188
12.7931 -12.0086 491.269 0.803922 0.333465 -0.492454
12.9394 -12.1505 491.378 0.806921 0.410839 -0.424369
13.0709 -12.2885 491.497 0.825507 0.394402 -0.403714
13.1554 -12.4143 491.645 0.861699 0.380794 -0.335367
13.2806 -12.5506 491.768 0.857784 0.387302 -0.337942
13.4213 -12.6909 491.88 0.873746 0.33316 -0.354362
13.517 -12.8195 492.022 0.880219 0.31167 -0.357878
13.5953 -12.9437 492.174 0.885499 0.323599 -0.333429
13.6805 -13.0695 492.322 0.893181 0.327639 -0.308026
13.8062 -13.2058 492.444 0.88632 0.347343 -0.30625
13.8886 -13.331 492.594 0.92327 0.309311 -0.227814
13.9611 -13.4535 492.75 0.939938 0.263799 -0.216626
14.031 -13.5755 492.908 0.942529 0.243404 -0.228896
14.1008 -13.6974 493.066 0.937675 0.251361 -0.239965
14.183 -13.8224 493.216 0.932071 0.261371 -0.250855
14.2658 -13.9477 493.365 0.938497 0.262517 -0.224293
14.3356 -14.0696 493.523 0.943203 0.261066 -0.205459
14.4049 -14.1913 493.681 0.960976 0.225974 -0.159564
14.42 -14.2992 493.874 0.969368 0.20846 -0.129882
14.4825 -14.4193 494.037 0.974756 0.18003 -0.132057
14.5071 -14.5296 494.224 0.968401 0.199108 -0.150181
14.5768 -14.6515 494.382 0.936471 0.287223 -0.20131
14.6751 -14.7807 494.521 0.935098 0.291724 -0.20122
14.7448 -14.9026 494.679 0.967758 0.219458 -0.123623
14.7566 -15.0098 494.875 0.98773 0.154719 -0.0212341
14.7778 -15.1193 495.065 0.990464 0.129119 -0.0480633
14.8052 -15.2305 495.25 0.989633 0.125385 -0.0700313
14.8198 -15.3385 495.444 0.99517 0.0975327 -0.0111379
14.8235 -15.4437 495.645 0.998116 0.0594586 0.0151517
14.8074 -15.544 495.859 0.990385 0.0856944 0.1086
14.819 -15.6513 496.055 0.992857 0.0746304 0.0930825
14.7932 -15.7492 496.276 0.984536 0.149694 -0.0909979
14.8577 -15.8699 496.438 0.966056 0.226367 -0.124477
14.8932 -15.9834 496.618 0.98787 0.15317 -0.0255199
14.8953 -16.0884 496.821 0.990995 0.133197 -0.0137036
14.9548 -16.2079 496.986 0.993659 0.110482 0.0208566
14.94 -16.3087 497.199 0.996098 0.0401256 0.0785997
14.9171 -16.4076 497.418 0.996877 0.0707477 0.0350972
14.9491 -16.5203 497.602 0.996615 0.0822045 0.000748421
14.9474 -16.6239 497.807 0.997945 0.00197755 0.0640441
14.9152 -16.7211 498.032 0.988103 -0.019338 0.152575
14.8612 -16.8112 498.272 0.977141 -0.00293902 0.212572
14.7971 -16.9009 498.519 0.969993 -0.00052965 0.243132
14.7246 -16.9872 498.772 0.982304 0.040027 0.182965
14.7521 -17.1003 498.959 0.99899 0.0244933 0.0376679
14.7486 -17.2025 499.164 0.991207 -0.0481454 0.12325
14.624 -17.278 499.452 0.902201 -0.0785978 0.424094
14.4435 -17.3378 499.777 0.900487 -0.0803948 0.427386
14.3454 -17.4195 500.047 0.989237 0.0296967 0.143279
14.3796 -17.5324 500.229 0.999805 0.0103094 0.0168151
14.3785 -17.6372 500.435 0.963836 -0.151198 0.219451
9.10554 -8.55842 489.287 0.609442 0.490577 -0.622828
9.31653 -8.71925 489.356 0.53677 0.481208 -0.693049
9.56161 -8.88757 489.407 0.573653 0.523275 -0.630162
9.74346 -9.03998 489.495 0.651626 0.503334 -0.567484
9.94176 -9.19655 489.574 0.638265 0.466346 -0.612486
10.1307 -9.35057 489.658 0.620193 0.467423 -0.629981
10.3277 -9.50665 489.736 0.642136 0.491348 -0.588421
10.5058 -9.65772 489.827 0.64163 0.51304 -0.570176
10.7385 -9.82288 489.883 0.680515 0.492339 -0.542679
10.8848 -9.96511 489.994 0.678938 0.446149 -0.583091
11.0663 -10.1178 490.08 0.67838 0.44815 -0.582204
11.2437 -10.268 490.172 0.731429 0.432439 -0.527264
11.3871 -10.4093 490.284 0.686362 0.434754 -0.583007
11.5813 -10.5645 490.363 0.689724 0.473618 -0.547693
11.7508 -10.7129 490.458 0.747151 0.444671 -0.493997
11.8867 -10.8524 490.575 0.767493 0.432654 -0.473038
12.0249 -10.9924 490.69 0.761128 0.471265 -0.445639
12.1798 -11.1369 490.794 0.823141 0.429609 -0.371315
12.3034 -11.273 490.918 0.822338 0.406085 -0.398567
12.4161 -11.4063 491.049 0.788938 0.446932 -0.421698
12.5575 -11.5471 491.162 0.802993 0.446465 -0.394805
12.7282 -11.6955 491.255 0.861788 0.343067 -0.373667
12.8034 -11.8189 491.41 0.871712 0.291987 -0.393525
12.9178 -11.9525 491.54 0.801627 0.367429 -0.471584
13.0567 -12.0925 491.654 0.842362 0.335464 -0.42177
13.1714 -12.2262 491.783 0.860403 0.284442 -0.422847
13.283 -12.359 491.914 0.819661 0.337464 -0.462897
13.4068 -12.495 492.038 0.862928 0.365609 -0.348835
13.4851 -12.6191 492.19 0.891464 0.350919 -0.286616
13.6169 -12.7572 492.309 0.895026 0.325296 -0.30514
13.7016 -12.8829 492.457 0.90254 0.305382 -0.303584
13.7724 -13.0051 492.614 0.89622 0.325528 -0.301365
13.871 -13.1345 492.754 0.911163 0.312097 -0.26903
13.964 -13.2624 492.897 0.931259 0.26545 -0.249587
14.0343 -13.3844 493.054 0.943532 0.214661 -0.252325
14.1041 -13.5064 493.212 0.939083 0.193094 -0.284321
14.1722 -13.6278 493.371 0.940377 0.222951 -0.256874
14.2264 -13.7457 493.539 0.942648 0.255677 -0.214581
14.2959 -13.8676 493.697 0.943409 0.260901 -0.20472
14.3597 -13.988 493.859 0.962765 0.219707 -0.157517
14.429 -14.1098 494.017 0.966529 0.173076 -0.189384
14.4981 -14.2315 494.176 0.978614 0.113774 -0.171379
14.5178 -14.3406 494.366 0.981626 0.0908677 -0.167792
14.5671 -14.4574 494.537 0.942974 0.192134 -0.271817
14.6311 -14.5778 494.699 0.934212 0.270626 -0.232399
14.696 -14.6985 494.86 0.971253 0.211952 -0.108366
14.7282 -14.8109 495.043 0.986462 0.143729 -0.0789553
14.787 -14.93 495.208 0.989105 0.129327 -0.0703215
14.7904 -15.0351 495.409 0.988887 0.143591 -0.0385239
14.8383 -15.1516 495.581 0.994244 0.10434 -0.0243228
14.8365 -15.2554 495.786 0.99618 -0.00138757 0.0873154
14.7744 -15.344 496.03 0.996458 0.0497469 0.0678039
14.8043 -15.4559 496.214 0.995925 0.0861172 0.0267653
14.8033 -15.5602 496.419 0.993509 0.0832218 -0.0775482
14.8613 -15.6791 496.585 0.974156 0.108401 -0.198165
14.8955 -15.7923 496.766 0.993841 0.0427019 -0.102253
14.9202 -15.903 496.954 0.997327 0.0450101 -0.0575512
14.8982 -16.002 497.173 0.994465 0.104954 -0.00496375
14.9249 -16.1133 497.359 0.994105 0.0661804 0.0858791
14.8898 -16.2091 497.586 0.99509 0.0939827 0.0310237
14.9305 -16.3239 497.764 0.98767 0.155978 0.0133996
14.9173 -16.4253 497.977 0.989488 0.0537169 0.134265
14.8661 -16.5172 498.215 0.974569 0.0183617 0.223336
14.7909 -16.6031 498.469 0.965992 0.0471855 0.25423
14.745 -16.6965 498.704 0.971466 0.0149329 0.236709
14.6966 -16.7895 498.941 0.993406 0.0832886 0.0787906
14.7572 -16.9104 499.107 0.992402 0.10136 0.069748
14.6559 -16.9859 499.375 0.941404 -0.0341832 0.335545
14.4893 -17.053 499.692 0.900085 -0.0318136 0.434551
14.3621 -17.1276 499.982 0.935089 -0.0105071 0.354258
9.13805 -8.37299 489.414 0.569782 0.502241 -0.650463
9.31504 -8.52416 489.506 0.605111 0.488601 -0.628578
9.50241 -8.67804 489.592 0.579978 0.496092 -0.646156
9.74426 -8.84652 489.642 0.603204 0.504161 -0.618034
9.95125 -9.00533 489.715 0.633867 0.479153 -0.607145
10.1358 -9.15806 489.802 0.656358 0.456815 -0.600429
10.3067 -9.30753 489.897 0.659993 0.464955 -0.590107
10.4999 -9.46295 489.978 0.632133 0.486705 -0.602931
10.6787 -9.61344 490.069 0.634601 0.512108 -0.578816
10.9106 -9.7791 490.125 0.692947 0.495089 -0.52413
11.0564 -9.92163 490.235 0.700228 0.46591 -0.540933
11.2395 -10.0728 490.323 0.70967 0.45175 -0.540638
11.4075 -10.2219 490.419 0.727231 0.415776 -0.546136
11.5401 -10.3617 490.536 0.689455 0.446387 -0.570431
11.7375 -10.5168 490.614 0.750447 0.452763 -0.481492
11.8527 -10.6508 490.744 0.80021 0.389686 -0.455862
12.0019 -10.7936 490.852 0.758702 0.403436 -0.511479
12.1551 -10.9376 490.958 0.7981 0.417417 -0.43451
12.2681 -11.071 491.089 0.835252 0.383555 -0.394005
12.4046 -11.2106 491.204 0.79256 0.36874 -0.485675
12.558 -11.3546 491.309 0.74017 0.389871 -0.547858
12.7063 -11.4972 491.417 0.831106 0.374789 -0.410848
12.8031 -11.6263 491.558 0.879795 0.312513 -0.358184
12.9259 -11.7622 491.683 0.799851 0.333624 -0.498933
13.0763 -11.9052 491.789 0.818841 0.368311 -0.440279
13.18 -12.0361 491.926 0.873426 0.330353 -0.357763
13.2704 -12.1634 492.071 0.877884 0.30768 -0.36695
13.3565 -12.2897 492.218 0.878034 0.344206 -0.332533
13.4803 -12.4257 492.342 0.874471 0.366597 -0.317658
13.5633 -12.5511 492.491 0.8861 0.35443 -0.298675
13.6589 -12.6797 492.633 0.910412 0.309276 -0.27477
13.7569 -12.809 492.773 0.901676 0.283024 -0.326922
13.8581 -12.9391 492.91 0.899889 0.289918 -0.325803
13.9372 -13.0634 493.062 0.912857 0.289973 -0.287417
14.0406 -13.1941 493.199 0.928571 0.256808 -0.267966
14.1105 -13.316 493.357 0.954041 0.194427 -0.228042
14.1558 -13.4317 493.53 0.958946 0.202236 -0.198803
14.2254 -13.5535 493.688 0.947667 0.23514 -0.215954
14.2982 -13.6763 493.844 0.942092 0.263062 -0.207991
14.368 -13.7982 494.002 0.940844 0.2822 -0.187554
14.4377 -13.9202 494.161 0.949917 0.261679 -0.17083
14.4788 -14.0346 494.337 0.968219 0.219985 -0.11899
14.5392 -14.1543 494.501 0.982775 0.14922 -0.109024
14.5583 -14.2633 494.692 0.972144 0.135299 -0.191389
14.6256 -14.3846 494.852 0.949203 0.206033 -0.237832
14.6951 -14.5065 495.01 0.964614 0.208263 -0.161698
14.7432 -14.623 495.182 0.986481 0.135604 -0.0920114
14.7341 -14.725 495.392 0.993417 0.106767 -0.0415113
14.7598 -14.8354 495.578 0.986492 0.151001 -0.0635065
14.7986 -14.9497 495.757 0.992005 0.122753 -0.0292898
14.7903 -15.0519 495.966 0.992039 0.0146666 0.125073
14.7569 -15.1478 496.191 0.997687 0.030433 0.0607768
14.7838 -15.259 496.378 0.989517 0.141885 -0.0269258
14.8116 -15.3705 496.563 0.976857 0.202066 -0.0701468
14.8724 -15.4902 496.727 0.972155 0.194421 -0.130823
14.9057 -15.6031 496.91 0.991242 0.131207 -0.0149719
14.8828 -15.7018 497.129 0.991074 0.110794 0.0741367
14.8875 -15.8075 497.33 0.993022 0.112126 0.036549
14.8963 -15.9143 497.528 0.996127 0.0590609 0.065132
14.8655 -16.0112 497.753 0.995881 0.0651917 0.0630242
14.8649 -16.1157 497.957 0.989887 0.141684 0.00707826
14.8943 -16.2277 498.142 0.981547 0.0651656 0.179772
14.788 -16.306 498.417 0.965224 -0.00705456 0.261327
14.7481 -16.4006 498.648 0.980563 0.000154877 0.196202
14.7206 -16.4982 498.871 0.986164 -0.0229558 0.164173
14.6796 -16.591 499.103 0.997656 0.0282841 0.0623044
14.6662 -16.6947 499.316 0.985986 0.0489077 0.159496
14.5925 -16.7811 499.57 0.913306 -0.0983776 0.395214
14.395 -16.8371 499.906 0.919872 -0.151673 0.361705
14.3804 -16.9418 500.121 0.982761 -0.103527 0.153179
9.08957 -8.16582 489.593 0.577545 0.517005 -0.631781
9.32426 -8.3325 489.648 0.612328 0.519653 -0.595831
9.55081 -8.49692 489.709 0.59744 0.486867 -0.637201
9.72474 -8.64638 489.804 0.57405 0.461041 -0.676688
9.94708 -8.81018 489.866 0.621529 0.478234 -0.620479
10.1265 -8.96204 489.956 0.671605 0.471141 -0.571816
10.3192 -9.11737 490.037 0.66798 0.462154 -0.58328
10.4909 -9.26665 490.132 0.656341 0.46262 -0.595985
10.6905 -9.42348 490.209 0.63739 0.473553 -0.60785
10.8507 -9.56981 490.31 0.660206 0.480064 -0.577639
11.0564 -9.72814 490.383 0.695097 0.484143 -0.531455
11.2223 -9.87513 490.482 0.689599 0.478225 -0.543833
11.4103 -10.0294 490.565 0.741981 0.449888 -0.497056
11.5497 -10.1707 490.678 0.73755 0.44228 -0.510302
11.713 -10.3166 490.779 0.723697 0.461597 -0.513021
11.893 -10.4678 490.867 0.784096 0.394626 -0.479023
12.0098 -10.6024 490.996 0.789187 0.319018 -0.524797
12.1277 -10.7375 491.123 0.787264 0.356117 -0.503385
12.292 -10.8845 491.221 0.78738 0.375716 -0.488743
12.4307 -11.0247 491.336 0.775479 0.365393 -0.514898
12.567 -11.1643 491.452 0.792221 0.366301 -0.488068
12.6729 -11.2958 491.587 0.818535 0.370118 -0.439333
12.8308 -11.441 491.689 0.841119 0.358818 -0.404685
12.9278 -11.5701 491.83 0.846841 0.391989 -0.35945
13.024 -11.6991 491.971 0.832901 0.430008 -0.348381
13.1624 -11.839 492.085 0.859218 0.396766 -0.322989
13.2733 -11.9718 492.217 0.903854 0.315965 -0.288468
13.3489 -12.0953 492.371 0.893088 0.279321 -0.352667
13.4477 -12.2249 492.511 0.874658 0.289571 -0.388744
13.5575 -12.3573 492.643 0.874308 0.307297 -0.375704
13.6868 -12.4947 492.763 0.884474 0.322678 -0.337025
13.7646 -12.6188 492.916 0.904313 0.305022 -0.298628
13.8504 -12.7449 493.064 0.911361 0.285378 -0.296614
13.9337 -12.8704 493.213 0.905982 0.29624 -0.302388
14.0278 -12.9987 493.356 0.915569 0.308705 -0.257748
14.0974 -13.1206 493.514 0.949357 0.289429 -0.122282
14.143 -13.2363 493.687 0.949689 0.294173 -0.107483
14.2048 -13.3562 493.851 0.95449 0.245996 -0.168628
14.2399 -13.4692 494.031 0.955516 0.207325 -0.209774
14.3096 -13.5912 494.189 0.942774 0.242938 -0.228383
14.3793 -13.7132 494.347 0.95218 0.240656 -0.188248
14.4488 -13.8351 494.506 0.951359 0.266443 -0.154675
14.5184 -13.957 494.664 0.958905 0.260673 -0.112027
14.5762 -14.0759 494.83 0.974137 0.194833 -0.114445
14.6065 -14.1878 495.013 0.96308 0.214092 -0.16322
14.6583 -14.3052 495.183 0.95552 0.256948 -0.14477
14.7174 -14.4245 495.348 0.977494 0.208196 -0.034051
14.7403 -14.5345 495.537 0.992777 0.119768 -0.00701861
14.7584 -14.6434 495.729 0.990031 0.107692 -0.0907855
14.792 -14.7562 495.91 0.995399 0.0923529 -0.0255483
14.7879 -14.8594 496.117 0.995601 0.0161585 0.0922944
14.7602 -14.9567 496.339 0.996852 -0.00811262 0.0788681
14.723 -15.0516 496.567 0.995038 0.0957312 -0.0270993
14.7684 -15.1676 496.741 0.969984 0.204664 -0.131312
14.8261 -15.2866 496.907 0.975112 0.201847 -0.0917295
14.836 -15.3936 497.105 0.986792 0.153006 0.0531972
14.8382 -15.4987 497.308 0.990242 0.128812 0.0531877
14.8654 -15.6101 497.494 0.994163 0.107792 0.00454155
14.8676 -15.7152 497.697 0.994915 0.0685237 0.0738113
14.8534 -15.8162 497.911 0.993156 0.0703937 0.093202
14.8479 -15.9195 498.119 0.992144 0.105756 0.0668246
14.8132 -16.0152 498.346 0.982079 0.0561521 0.179908
14.7793 -16.1116 498.573 0.976002 -0.0167305 0.217117
14.7389 -16.2063 498.804 0.989514 -0.0286401 0.14157
14.7051 -16.3031 499.031 0.990648 -0.0319451 0.132647
14.6735 -16.3996 499.257 0.990626 -0.0339103 0.132328
14.625 -16.4923 499.494 0.978251 -0.0419898 0.203129
14.5451 -16.5773 499.752 0.934018 -0.116795 0.337594
14.4555 -16.66 500.017 0.943239 -0.191395 0.271419
14.3817 -16.7467 500.271 0.988027 -0.147417 0.0455157
9.11778 -7.97897 489.723 0.565585 0.436072 -0.699967
9.27485 -8.12506 489.827 0.559936 0.499683 -0.6609
9.5413 -8.30027 489.863 0.582385 0.546798 -0.601531
9.75394 -8.461 489.932 0.631582 0.502154 -0.590716
9.93669 -8.61435 490.019 0.636279 0.460251 -0.619126
10.1198 -8.76642 490.108 0.659024 0.46948 -0.587602
10.3081 -8.92035 490.192 0.665467 0.475053 -0.575742
10.4923 -9.07331 490.279 0.661001 0.473243 -0.582339
10.6783 -9.22662 490.364 0.660085 0.481311 -0.576738
10.8776 -9.38318 490.442 0.681961 0.462195 -0.566837
11.0228 -9.52601 490.552 0.676312 0.45204 -0.581603
11.2197 -9.68181 490.63 0.68912 0.462342 -0.55799
11.3696 -9.82533 490.738 0.732225 0.458597 -0.503523
11.5361 -9.97319 490.836 0.751236 0.456006 -0.477182
11.6848 -10.1156 490.945 0.701822 0.487643 -0.519279
11.8841 -10.2727 491.02 0.734557 0.480124 -0.479486
12.0326 -10.4157 491.129 0.828101 0.39099 -0.401716
12.1472 -10.55 491.258 0.804664 0.349508 -0.479959
12.2754 -10.6872 491.38 0.766687 0.36456 -0.528476
12.4202 -10.8291 491.491 0.791798 0.386201 -0.473185
12.549 -10.9667 491.611 0.818197 0.391424 -0.421118
12.6903 -11.1076 491.724 0.826358 0.366211 -0.42781
12.7826 -11.2356 491.868 0.874208 0.337733 -0.348852
12.8551 -11.3584 492.024 0.870022 0.373503 -0.321802
13.0149 -11.5041 492.125 0.824895 0.402622 -0.396792
13.1229 -11.6362 492.259 0.832569 0.404653 -0.378265
13.2558 -11.7747 492.377 0.867384 0.384343 -0.316109
13.3656 -11.9072 492.509 0.886391 0.326719 -0.327972
13.4787 -12.0405 492.639 0.887477 0.296093 -0.353149
13.552 -12.1635 492.795 0.893957 0.314185 -0.319576
13.6229 -12.2858 492.953 0.886946 0.364574 -0.283572
13.7366 -12.4192 493.083 0.896289 0.330922 -0.295222
13.8363 -12.549 493.221 0.913741 0.242783 -0.325783
13.9121 -12.6725 493.376 0.924444 0.229227 -0.304727
13.9818 -12.7945 493.534 0.949355 0.220585 -0.223758
14.0122 -12.9063 493.717 0.964474 0.207765 -0.163165
14.0821 -13.0284 493.875 0.932549 0.236541 -0.272763
14.2103 -13.1655 493.996 0.936595 0.184795 -0.297725
14.2801 -13.2874 494.154 0.961355 0.126713 -0.24442
14.3368 -13.4061 494.32 0.95277 0.159248 -0.258591
14.3969 -13.5256 494.485 0.969562 0.157395 -0.187556
14.4052 -13.6318 494.683 0.962236 0.226281 -0.15132
14.4746 -13.7537 494.841 0.940475 0.299651 -0.16036
14.5415 -13.875 495.001 0.963942 0.247165 -0.0986217
14.5764 -13.9881 495.182 0.973534 0.202533 -0.105889
14.6316 -14.1064 495.35 0.96865 0.212405 -0.128848
14.6593 -14.2177 495.535 0.964837 0.250452 -0.0797646
14.7273 -14.3393 495.695 0.977819 0.206604 -0.034423
14.7388 -14.4464 495.891 0.988664 0.147296 -0.0291247
14.7634 -14.557 496.079 0.991395 0.129955 0.0157285
14.7529 -14.6586 496.289 0.989964 0.0999677 0.0998879
14.751 -14.7624 496.494 0.990301 0.0602983 0.125173
14.7317 -14.8619 496.711 0.997385 0.0705701 -0.0155616
14.7854 -14.9799 496.88 0.980584 0.114634 -0.159103
14.7969 -15.0873 497.077 0.99345 0.0680842 -0.0917651
14.8175 -15.197 497.267 0.998499 0.044526 -0.0319096
14.8292 -15.3044 497.464 0.99608 0.0799139 -0.0379394
14.8524 -15.4148 497.653 0.997121 0.0755726 0.00618659
14.827 -15.513 497.874 0.995316 0.0502111 0.0826076
14.8144 -15.6144 498.087 0.994891 0.0417325 0.0919283
14.7843 -15.7116 498.311 0.992234 0.0725212 0.101059
14.7968 -15.8193 498.507 0.98749 0.0594801 0.146035
14.5189 -16.3786 499.921 0.960558 -0.133163 0.244124
14.4471 -16.4656 500.173 0.968601 -0.121592 0.216859
14.4146 -16.5626 500.4 0.994705 -0.037511 0.0956812
9.945 -8.42187 490.163 0.661381 0.466754 -0.587124
10.1101 -8.56986 490.262 0.66722 0.462684 -0.583731
10.3051 -8.72561 490.342 0.660712 0.474751 -0.581439
10.4806 -8.87642 490.434 0.669644 0.473226 -0.572394
10.6655 -9.02952 490.52 0.652122 0.482523 -0.58473
10.8515 -9.1822 490.607 0.675185 0.490566 -0.550881
11.0498 -9.33939 490.683 0.698043 0.460811 -0.548079
11.1988 -9.48264 490.792 0.706101 0.429834 -0.562729
11.3726 -9.63272 490.884 0.733843 0.411743 -0.540317
11.5124 -9.77372 490.999 0.746152 0.416956 -0.519042
11.6734 -9.92003 491.099 0.707637 0.448695 -0.545822
11.8371 -10.0671 491.198 0.709367 0.464702 -0.529953
12.0002 -10.214 491.298 0.778312 0.445049 -0.442902
12.1513 -10.3577 491.404 0.800292 0.421232 -0.426727
12.2999 -10.5003 491.513 0.808151 0.387194 -0.443816
12.4051 -10.6322 491.648 0.815886 0.369465 -0.444776
12.5394 -10.7713 491.766 0.798122 0.36796 -0.477081
12.6717 -10.9099 491.884 0.839888 0.328322 -0.432196
12.7788 -11.0419 492.019 0.899502 0.285448 -0.33078
12.8805 -11.1723 492.156 0.85414 0.297503 -0.426541
12.9943 -11.306 492.287 0.825697 0.312715 -0.469505
13.102 -11.438 492.421 0.844022 0.342158 -0.412982
13.2219 -11.5732 492.547 0.835119 0.374232 -0.403146
13.3441 -11.709 492.671 0.864476 0.37076 -0.339438
13.4349 -11.8366 492.816 0.903199 0.33422 -0.269313
13.5191 -11.9624 492.965 0.924731 0.284564 -0.252774
13.61 -12.09 493.11 0.868502 0.313084 -0.384295
13.7621 -12.2334 493.215 0.847037 0.336556 -0.41141
13.8593 -12.3626 493.355 0.913223 0.309416 -0.265114
13.9294 -12.4847 493.513 0.937863 0.281693 -0.202637
13.9969 -12.6061 493.673 0.958662 0.206798 -0.195454
14.0666 -12.7282 493.831 0.951344 0.148343 -0.270071
14.1551 -12.855 493.977 0.904753 0.210647 -0.370203
14.2251 -12.9771 494.135 0.931176 0.262396 -0.253101
14.2639 -13.0911 494.313 0.957985 0.256699 -0.127943
14.3149 -13.2082 494.484 0.958846 0.249175 -0.136111
14.3652 -13.3253 494.654 0.981467 0.179026 -0.0683509
14.3794 -13.433 494.849 0.980499 0.15169 -0.124949
14.4487 -13.5551 495.008 0.948824 0.20359 -0.241422
14.5101 -13.6747 495.171 0.957385 0.236348 -0.165991
14.5793 -13.7967 495.329 0.972086 0.2055 -0.113223
14.599 -13.906 495.52 0.987173 0.129301 -0.0936507
14.6247 -14.0167 495.707 0.973099 0.189596 -0.130891
14.6872 -14.1369 495.87 0.971108 0.222793 -0.0855139
14.7128 -14.2477 496.057 0.986158 0.165789 0.0024892
14.7224 -14.3544 496.255 0.99422 0.0986588 0.0423466
14.7057 -14.4549 496.47 0.996752 0.0536891 0.0600263
14.7066 -14.559 496.673 0.994381 0.0961664 0.0442642
14.7312 -14.6696 496.861 0.987954 0.150468 -0.0361493
14.767 -14.7832 497.042 0.977392 0.181344 -0.108713
14.8301 -14.9036 497.205 0.992318 0.117233 -0.0395047
14.8171 -15.0048 497.418 0.998489 0.054867 0.0032197
14.8185 -15.1096 497.621 0.996103 0.0881764 -0.00202596
14.8217 -15.215 497.823 0.994243 0.093302 0.0526819
14.8163 -15.3182 498.031 0.994924 0.0549825 0.0842748
14.8101 -15.4211 498.24 0.992616 0.0235097 0.118998
14.7627 -15.5139 498.476 0.994761 0.0167412 0.100848
14.7459 -15.6146 498.691 0.994786 0.0215841 0.0996776
14.5101 -16.1841 500.078 0.957255 -0.195358 0.213302
14.4465 -16.2748 500.325 0.971369 -0.114046 0.208413
14.3597 -16.3565 500.588 0.982112 0.0719937 0.173992
9.92454 -8.22155 490.325 0.658886 0.462485 -0.593277
10.1181 -8.37774 490.405 0.675816 0.45912 -0.576612
10.2833 -8.52559 490.504 0.66098 0.463732 -0.589965
10.4859 -8.68433 490.578 0.666035 0.459975 -0.587214
10.6532 -8.83252 490.676 0.666817 0.452405 -0.592187
10.8421 -8.9866 490.76 0.650415 0.473349 -0.594054
11.023 -9.13894 490.848 0.677267 0.489569 -0.549211
11.22 -9.29483 490.926 0.714047 0.466661 -0.521885
11.3708 -9.43873 491.034 0.747496 0.410837 -0.521979
11.5193 -9.58206 491.142 0.746175 0.379694 -0.546859
11.6762 -9.72722 491.246 0.715202 0.400729 -0.572627
11.8435 -9.87548 491.342 0.725293 0.403451 -0.557833
11.9867 -10.0172 491.454 0.761881 0.388048 -0.518609
12.1177 -10.1556 491.574 0.769943 0.404497 -0.493527
12.2687 -10.2993 491.681 0.801481 0.433251 -0.412215
12.4054 -10.4392 491.796 0.806518 0.431147 -0.404525
12.5626 -10.5844 491.899 0.800764 0.416358 -0.430607
12.6796 -10.719 492.027 0.858502 0.378518 -0.345975
12.7702 -10.8467 492.172 0.874569 0.333941 -0.351586
12.89 -10.982 492.299 0.846646 0.314098 -0.429574
13.0159 -11.1189 492.421 0.863422 0.303996 -0.402602
13.1036 -11.2457 492.568 0.863813 0.339214 -0.372505
13.2257 -11.3815 492.693 0.857361 0.358878 -0.368969
13.3103 -11.5075 492.842 0.872385 0.345891 -0.345403
13.4354 -11.6441 492.964 0.889478 0.313211 -0.332759
13.5272 -11.7719 493.108 0.898503 0.294392 -0.325616
13.6355 -11.904 493.242 0.870594 0.341343 -0.354331
13.7099 -12.0273 493.397 0.885991 0.346596 -0.308045
13.7829 -12.1502 493.553 0.917105 0.331675 -0.221155
13.8689 -12.2765 493.701 0.911227 0.343519 -0.227288
13.9835 -12.4102 493.83 0.920068 0.321195 -0.224296
14.0534 -12.5323 493.988 0.941546 0.28426 -0.180795
14.0945 -12.6469 494.165 0.944929 0.28834 -0.154819
14.1482 -12.7648 494.334 0.949232 0.288765 -0.124791
14.2178 -12.8869 494.492 0.95378 0.268138 -0.13567
14.2867 -13.0086 494.651 0.95594 0.24939 -0.154863
14.3481 -13.1286 494.815 0.968268 0.219661 -0.11919
14.4127 -13.2493 494.976 0.969813 0.207788 -0.127622
14.4552 -13.3644 495.152 0.969146 0.203133 -0.13962
14.4788 -13.4745 495.341 0.9609 0.224409 -0.162207
14.5482 -13.5965 495.499 0.958301 0.23945 -0.155961
14.617 -13.7183 495.658 0.98924 0.134141 -0.0583966
14.607 -13.82 495.868 0.989224 0.0857735 -0.118656
14.6557 -13.9367 496.04 0.982294 0.142641 -0.121455
14.6735 -14.0455 496.233 0.985443 0.16662 -0.0337716
14.7211 -14.1615 496.406 0.992318 0.121339 0.0241315
14.7134 -14.2642 496.615 0.994568 0.0552024 0.0882472
14.6838 -14.361 496.838 0.992683 0.113418 0.0414252
14.7024 -14.4701 497.03 0.982968 0.177177 -0.0488139
14.7408 -14.5843 497.209 0.97814 0.16065 -0.132034
14.7744 -14.6973 497.391 0.989521 0.13122 -0.0602483
14.7952 -14.807 497.582 0.99666 0.0713928 0.039656
14.7833 -14.9085 497.794 0.998374 0.0493963 0.0284502
14.7879 -15.0142 497.996 0.996604 0.0758331 0.0320996
14.7911 -15.1196 498.198 0.994036 0.0653469 0.0873073
14.7516 -15.2141 498.429 0.992815 0.0472037 0.109958
14.7674 -15.3225 498.623 0.995709 -0.0112096 0.091856
14.7306 -15.4174 498.852 0.992786 -0.0530263 0.10754
14.5298 -15.9976 500.215 0.949072 -0.123116 0.290007
14.3911 -16.07 500.513 0.941735 -0.0398614 0.333987
14.2812 -16.1443 500.792 0.970391 0.0957437 0.221753
6.42501 -5.62594 489.817 0.424157 0.589658 -0.68731
6.70296 -5.80572 489.847 0.392195 0.606932 -0.691243
7.02636 -5.99773 489.849 0.4084 0.603392 -0.684929
7.33446 -6.18546 489.86 0.447864 0.601449 -0.661572
7.65247 -6.37576 489.865 0.47462 0.58222 -0.660118
7.89615 -6.5458 489.916 0.499543 0.531209 -0.684305
8.16439 -6.72241 489.952 0.511982 0.454781 -0.728731
8.37313 -6.88283 490.024 0.467745 0.417337 -0.779131
9.93834 -8.03195 490.463 0.671674 0.484321 -0.560613
10.1002 -8.17905 490.564 0.671306 0.456928 -0.583579
10.3029 -8.33781 490.638 0.653938 0.445133 -0.611737
10.4721 -8.48667 490.735 0.65284 0.443264 -0.614261
10.6738 -8.64389 490.812 0.679375 0.447949 -0.581198
10.8263 -8.7883 490.918 0.677132 0.443836 -0.586943
11.0145 -8.94258 491.002 0.669404 0.470346 -0.575042
11.1775 -9.08944 491.102 0.684536 0.496655 -0.533615
11.385 -9.2489 491.173 0.727677 0.466311 -0.503031
11.5305 -9.39144 491.284 0.753662 0.413639 -0.51078
11.6855 -9.53627 491.388 0.723719 0.39728 -0.564269
11.8442 -9.68229 491.49 0.737223 0.41273 -0.534936
12.0005 -9.8282 491.593 0.78672 0.408017 -0.463242
12.1304 -9.96572 491.714 0.818323 0.348563 -0.457002
12.2257 -10.0947 491.856 0.797937 0.373188 -0.473315
12.3814 -10.2397 491.96 0.786561 0.427852 -0.445269
12.4947 -10.3734 492.091 0.81477 0.428764 -0.39027
12.6277 -10.5123 492.209 0.834883 0.404148 -0.373677
12.7744 -10.6548 492.318 0.837671 0.356016 -0.414198
12.8972 -10.7909 492.443 0.853675 0.333316 -0.400175
12.982 -10.917 492.591 0.890169 0.320424 -0.323923
13.0744 -11.0451 492.735 0.874232 0.341834 -0.344772
13.1919 -11.1798 492.863 0.859554 0.354299 -0.368292
13.3129 -11.3154 492.989 0.861187 0.331533 -0.385283
13.4234 -11.4482 493.121 0.88344 0.299437 -0.360377
13.4984 -11.5717 493.276 0.908356 0.294704 -0.296714
13.579 -11.6966 493.427 0.8885 0.332064 -0.316704
13.7088 -11.8344 493.547 0.9086 0.308699 -0.28134
13.7853 -11.9583 493.701 0.92535 0.269986 -0.266149
13.8699 -12.0842 493.849 0.90851 0.286766 -0.303933
13.9403 -12.2065 494.007 0.92047 0.308821 -0.239511
14.0102 -12.3286 494.165 0.946527 0.285453 -0.150344
14.0778 -12.4501 494.325 0.956331 0.245567 -0.15852
14.1476 -12.5722 494.483 0.951332 0.223042 -0.212647
14.2123 -12.693 494.645 0.952352 0.209141 -0.222004
14.2661 -12.811 494.814 0.959087 0.218413 -0.180133
14.315 -12.9276 494.985 0.965634 0.218074 -0.1414
14.3458 -13.0397 495.169 0.964948 0.228865 -0.128437
14.41 -13.1603 495.331 0.966587 0.227168 -0.118763
14.4739 -13.2809 495.493 0.96801 0.189507 -0.164448
14.5245 -13.3981 495.664 0.955504 0.192375 -0.223616
14.5851 -13.5179 495.828 0.976594 0.162624 -0.140775
14.6434 -13.6371 495.994 0.994726 0.0764952 -0.0683231
14.6323 -13.7384 496.205 0.994915 0.0849178 -0.0541623
14.6558 -13.8486 496.394 0.988017 0.148528 -0.0419775
14.6654 -13.9553 496.592 0.993612 0.11266 0.00651228
14.6594 -14.0581 496.8 0.990516 0.0755026 0.114796
14.6333 -14.1557 497.021 0.990461 0.131786 0.0402463
14.6942 -14.2757 497.186 0.971973 0.199536 -0.124316
14.7607 -14.3971 497.346 0.979476 0.181203 -0.0882729
14.7713 -14.5042 497.544 0.991207 0.126008 -0.0403729
14.7932 -14.6142 497.734 0.997588 0.0689648 0.00782728
14.7855 -14.7168 497.943 0.996942 0.0524607 0.0579122
14.7736 -14.8182 498.156 0.995603 0.0687893 0.0635746
14.7528 -14.9175 498.374 0.995747 0.0465149 0.0795305
14.7609 -15.0242 498.573 0.998751 0.0355687 0.0350785
14.7621 -15.1291 498.777 0.997726 -0.00906622 0.0667951
14.7208 -15.2235 499.009 0.993059 -0.0633555 0.0990944
14.4513 -15.7792 500.42 0.918506 -0.0158329 0.39509
14.2704 -15.8449 500.745 0.929731 0.03264 0.366791
14.2753 -15.9511 500.949 0.987473 0.057398 0.146979
6.41639 -5.42769 489.971 0.416211 0.552134 -0.722438
6.72409 -5.61569 489.982 0.348279 0.530757 -0.772657
7.05542 -5.80999 489.979 0.363794 0.509292 -0.779921
7.28277 -5.97592 490.041 0.413809 0.563652 -0.714884
7.58418 -6.16186 490.056 0.45219 0.625797 -0.635533
7.86508 -6.34214 490.084 0.468771 0.604182 -0.644375
8.16736 -6.5281 490.098 0.509321 0.558225 -0.654963
8.38375 -6.69068 490.166 0.578253 0.508616 -0.637913
9.92029 -7.83276 490.622 0.648038 0.508329 -0.56714
10.1116 -7.9878 490.705 0.656087 0.481295 -0.581296
10.3077 -8.14426 490.785 0.655708 0.458665 -0.599728
10.4832 -8.2951 490.877 0.679873 0.465334 -0.566777
10.6532 -8.44391 490.974 0.679999 0.470896 -0.562012
