12.3306 -26.6484 478.05 0.651583 0.487764 -0.58097
12.5136 -26.6834 478.242 0.651691 0.51345 -0.558273
12.6982 -26.71 478.408 0.66305 0.492946 -0.563355
12.8758 -26.7403 478.627 0.711778 0.427582 -0.557266
13.0642 -26.7727 478.782 0.782852 0.312747 -0.537896
13.2349 -26.8103 479.063 0.802099 0.284935 -0.524833
13.407 -26.8472 479.336 0.742522 0.385086 -0.54806
13.597 -26.8751 479.474 0.724904 0.390632 -0.567381
13.7702 -26.9091 479.734 0.782923 0.39547 -0.480245
13.9406 -26.9502 480.031 0.79846 0.405864 -0.444676
14.1193 -26.9844 480.259 0.80615 0.340419 -0.483981
14.2845 -27.0254 480.593 0.838061 0.309867 -0.44904
14.458 -27.0624 480.863 0.823165 0.356686 -0.441785
14.6312 -27.0997 481.139 0.834093 0.360631 -0.417414
14.7935 -27.1427 481.501 0.840671 0.392413 -0.373209
14.9628 -27.1822 481.81 0.836965 0.431539 -0.336547
15.1182 -27.229 482.231 0.860962 0.403321 -0.309964
15.2835 -27.271 482.576 0.897996 0.347153 -0.270348
15.4277 -27.3239 483.089 0.907985 0.320045 -0.270433
15.5804 -27.3728 483.539 0.91217 0.326721 -0.247383
15.7186 -27.4294 484.107 0.933658 0.291207 -0.20852
-4.05057 -24.9782 478.729 -0.600828 0.465536 -0.649833
-3.80318 -24.9841 478.508 -0.58079 0.455226 -0.674872
-3.55724 -24.9904 478.295 -0.526136 0.4567 -0.71736
-3.3183 -24.9992 478.122 -0.591529 0.361753 -0.720575
-3.06829 -25.0038 477.882 -0.576308 0.395895 -0.714938
-2.82511 -25.0109 477.681 -0.511101 0.436305 -0.74055
-2.58633 -25.0195 477.505 -0.54108 0.371564 -0.754435
-2.35402 -25.0303 477.368 -0.523832 0.408624 -0.747413
-2.11689 -25.0393 477.2 -0.463669 0.472032 -0.749798
-1.8792 -25.0481 477.028 -0.432319 0.425223 -0.795164
-1.65236 -25.0608 476.921 -0.476486 0.383092 -0.791329
-1.41841 -25.0708 476.769 -0.450131 0.443982 -0.774766
-1.18911 -25.0824 476.645 -0.408814 0.482207 -0.774821
-0.958696 -25.0924 476.515 -0.383003 0.496387 -0.779043
-0.731727 -25.1048 476.404 -0.349542 0.514934 -0.782729
-0.504656 -25.1183 476.29 -0.336289 0.52213 -0.783767
-0.28068 -25.1322 476.194 -0.317082 0.517947 -0.794475
-0.0565758 -25.145 476.099 -0.312228 0.514582 -0.798573
0.167015 -25.1601 476.004 -0.278772 0.53004 -0.80084
0.389542 -25.1718 475.919 -0.286316 0.523415 -0.802533
0.611012 -25.1861 475.837 -0.259765 0.526706 -0.809384
0.831142 -25.2012 475.763 -0.238387 0.535696 -0.810063
1.05385 -25.2143 475.673 -0.24858 0.529555 -0.811036
1.26995 -25.2309 475.623 -0.244887 0.531718 -0.810744
1.49443 -25.2429 475.52 -0.248646 0.541357 -0.803186
1.71323 -25.2579 475.452 -0.213193 0.540264 -0.814042
1.92814 -25.2752 475.408 -0.12741 0.560436 -0.818339
2.14038 -25.2927 475.381 -0.0401377 0.59944 -0.799413
2.35177 -25.3106 475.359 -0.139924 0.582783 -0.800491
2.57444 -25.3239 475.264 -0.128595 0.581945 -0.802996
2.78369 -25.3425 475.255 -0.0330058 0.597045 -0.801528
2.99817 -25.359 475.212 -0.0792203 0.551784 -0.830216
3.2058 -25.3783 475.213 -0.0314947 0.533122 -0.845452
3.41773 -25.3958 475.186 -0.0838992 0.533955 -0.84134
3.63586 -25.4107 475.118 -0.0580213 0.545588 -0.836042
3.8414 -25.4308 475.132 -0.0010963 0.531624 -0.84698
4.05373 -25.448 475.101 -0.0666952 0.532997 -0.843485
4.26484 -25.4657 475.078 -0.0450482 0.600001 -0.79873
4.47428 -25.4841 475.065 0.0549623 0.609151 -0.791147
4.67833 -25.5047 475.088 0.0790436 0.594542 -0.80017
4.88908 -25.5226 475.066 0.074225 0.574817 -0.814908
5.09308 -25.5432 475.089 0.101007 0.546232 -0.831521
5.29866 -25.5631 475.102 0.0791991 0.553015 -0.829399
5.50519 -25.5826 475.107 0.117705 0.563505 -0.817685
5.71039 -25.6027 475.122 0.149255 0.568063 -0.809338
5.91351 -25.6237 475.151 0.15595 0.575781 -0.802593
6.1175 -25.6443 475.173 0.146029 0.585964 -0.797071
6.32306 -25.6642 475.185 0.160463 0.586978 -0.793542
6.52569 -25.6852 475.215 0.191114 0.569948 -0.799146
6.72887 -25.7064 475.246 0.211754 0.546895 -0.809979
6.92839 -25.7286 475.295 0.202258 0.539244 -0.817501
7.13126 -25.7499 475.328 0.281265 0.527781 -0.80146
7.32823 -25.7735 475.398 0.315028 0.525752 -0.790153
7.52632 -25.7968 475.463 0.272597 0.566725 -0.777504
7.72479 -25.8195 475.52 0.393855 0.555152 -0.732587
7.91727 -25.8453 475.624 0.39427 0.520031 -0.757707
8.1153 -25.8685 475.688 0.248 0.540009 -0.804292
8.31642 -25.8904 475.731 0.242519 0.584252 -0.774489
8.5187 -25.9118 475.766 0.269102 0.579565 -0.769213
8.71666 -25.9351 475.831 0.293424 0.54129 -0.787977
8.91213 -25.9596 475.914 0.340148 0.570041 -0.747899
9.11016 -25.983 475.98 0.311193 0.58373 -0.749946
9.31218 -26.0044 476.016 0.300464 0.547361 -0.7811
9.50825 -26.0287 476.096 0.431998 0.507129 -0.745787
9.69879 -26.0555 476.215 0.527065 0.474574 -0.704969
9.88878 -26.0825 476.338 0.523582 0.504867 -0.686273
10.0779 -26.11 476.469 0.578193 0.515795 -0.632178
10.2608 -26.1404 476.644 0.534183 0.498981 -0.682398
10.4621 -26.1623 476.688 0.462218 0.47476 -0.748971
10.6487 -26.191 476.838 0.589268 0.458612 -0.66516
10.8298 -26.2227 477.029 0.511333 0.500657 -0.698485
11.0273 -26.2458 477.101 0.526674 0.516976 -0.674796
11.2099 -26.277 477.283 0.65027 0.471932 -0.595339
11.3974 -26.306 477.43 0.631467 0.459935 -0.624267
11.5796 -26.3399 477.621 0.64104 0.47585 -0.602191
11.765 -26.3669 477.781 0.570708 0.51269 -0.641437
11.9565 -26.3938 477.9 0.48801 0.555775 -0.673023
12.1456 -26.4219 478.038 0.593062 0.533814 -0.60276
12.3294 -26.4526 478.217 0.670549 0.497275 -0.550529
12.5112 -26.4876 478.417 0.646411 0.49147 -0.583618
12.6985 -26.5156 478.569 0.642876 0.451486 -0.618766
12.8855 -26.541 478.718 0.665345 0.401986 -0.629065
13.0698 -26.5736 478.9 0.759806 0.38079 -0.526967
13.2375 -26.6125 479.205 0.803676 0.38651 -0.452455
13.4146 -26.6473 479.44 0.733354 0.407748 -0.543998
13.5945 -26.6831 479.662 0.744442 0.430494 -0.510373
13.7622 -26.7194 479.964 0.777011 0.452281 -0.43783
13.9423 -26.7527 480.181 0.755409 0.440822 -0.484802
14.1207 -26.787 480.412 0.789438 0.395928 -0.469072
14.2958 -26.823 480.67 0.8458 0.332866 -0.416919
14.4555 -26.8668 481.048 0.825876 0.370402 -0.425126
14.6302 -26.9032 481.312 0.841085 0.392364 -0.372326
14.7843 -26.9503 481.738 0.862321 0.374208 -0.341132
14.9478 -26.9927 482.094 0.846096 0.408676 -0.342207
15.1146 -27.0336 482.426 0.867525 0.379667 -0.321331
15.2695 -27.0808 482.853 0.892935 0.352235 -0.280351
15.4229 -27.1289 483.296 0.91552 0.306666 -0.260345
15.5731 -27.1789 483.766 0.930527 0.262338 -0.255534
15.7249 -27.2283 484.227 0.951319 0.184891 -0.24659
-4.04502 -24.7762 478.824 -0.660806 0.304423 -0.686048
-3.79834 -24.7825 478.608 -0.624639 0.350285 -0.697944
-3.54637 -24.7868 478.359 -0.607239 0.347287 -0.7146
-3.30086 -24.7933 478.147 -0.575937 0.348132 -0.739662
-3.06706 -24.8039 478.003 -0.556875 0.416463 -0.718644
-2.82676 -24.8121 477.82 -0.531185 0.488938 -0.691941
-2.58322 -24.8191 477.616 -0.472314 0.517331 -0.713644
-2.35101 -24.83 477.48 -0.457724 0.503037 -0.733104
-2.11315 -24.8389 477.308 -0.507855 0.459528 -0.72864
-1.87522 -24.8477 477.134 -0.439299 0.490388 -0.752686
-1.64655 -24.8598 477.016 -0.395974 0.503969 -0.767607
-1.41641 -24.8711 476.888 -0.4125 0.485827 -0.770595
-1.18794 -24.8833 476.77 -0.392638 0.508794 -0.766136
-0.958074 -24.8948 476.642 -0.369242 0.504659 -0.780372
-0.734122 -24.9084 476.549 -0.353074 0.487276 -0.798687
-0.506901 -24.9209 476.435 -0.345858 0.517231 -0.78285
-0.280032 -24.9324 476.325 -0.315543 0.538062 -0.781615
-0.055699 -24.9464 476.227 -0.297983 0.52723 -0.795761
0.166274 -24.9606 476.143 -0.286935 0.522414 -0.802965
0.389415 -24.9732 476.054 -0.287051 0.523248 -0.80238
0.613185 -24.9876 475.957 -0.253263 0.525191 -0.812424
0.831264 -25.0032 475.896 -0.250257 0.511566 -0.821993
1.05227 -25.0175 475.817 -0.248903 0.52064 -0.816689
1.27417 -25.0315 475.731 -0.235357 0.521209 -0.820334
1.49045 -25.0483 475.679 -0.262424 0.514819 -0.816146
1.71415 -25.0607 475.581 -0.19573 0.551366 -0.810978
1.92887 -25.0773 475.539 -0.0795966 0.561617 -0.82356
2.13944 -25.0956 475.523 -0.0668971 0.533982 -0.842845
2.35471 -25.1119 475.477 -0.15767 0.512727 -0.84395
2.56851 -25.1288 475.439 -0.119987 0.557521 -0.821446
2.78097 -25.1462 475.41 -0.0980326 0.566564 -0.818166
2.99938 -25.1612 475.342 -0.103001 0.559339 -0.822515
3.21382 -25.1778 475.299 -0.024919 0.560132 -0.828029
3.42235 -25.1967 475.294 -0.0680382 0.544335 -0.836104
3.63231 -25.215 475.28 -0.0713276 0.575548 -0.814651
3.84839 -25.2308 475.225 0.00701122 0.575101 -0.818052
4.05192 -25.2517 475.252 0.0334574 0.58387 -0.811158
4.25847 -25.2713 475.259 -0.0331275 0.592914 -0.804584
4.47501 -25.2869 475.2 0.0329208 0.592985 -0.804541
4.67847 -25.3077 475.227 0.0491417 0.580539 -0.812748
4.89093 -25.3249 475.195 0.0351572 0.55833 -0.828873
5.09609 -25.3451 475.21 0.108417 0.541458 -0.833708
5.30295 -25.3645 475.215 0.0953304 0.525451 -0.845467
5.50722 -25.385 475.236 0.127175 0.550297 -0.825227
5.71012 -25.4061 475.266 0.161208 0.577081 -0.800618
5.91312 -25.4272 475.297 0.169403 0.591572 -0.788255
6.11576 -25.4482 475.327 0.149716 0.602802 -0.783718
6.31957 -25.4693 475.354 0.141202 0.611684 -0.778399
6.5245 -25.4892 475.369 0.162807 0.595165 -0.786938
6.72754 -25.5104 475.399 0.199482 0.57285 -0.795015
6.93022 -25.5315 475.429 0.201974 0.563741 -0.800876
7.13303 -25.5526 475.461 0.283447 0.568779 -0.772106
7.32698 -25.5775 475.552 0.351542 0.575701 -0.738232
7.52376 -25.6013 475.625 0.291491 0.5768 -0.763108
7.72526 -25.623 475.665 0.349873 0.551716 -0.757099
7.91917 -25.648 475.758 0.384994 0.508594 -0.770138
8.11704 -25.6713 475.823 0.310334 0.50466 -0.805612
8.3136 -25.6953 475.899 0.244875 0.518109 -0.819512
8.51652 -25.7164 475.93 0.223619 0.535085 -0.814665
8.71902 -25.7376 475.962 0.345571 0.534169 -0.771521
8.91132 -25.7636 476.069 0.354901 0.536449 -0.765681
9.11259 -25.7855 476.112 0.25973 0.569277 -0.780041
9.31192 -25.8083 476.168 0.285522 0.570484 -0.770081
9.51147 -25.831 476.223 0.42609 0.526204 -0.735905
9.70147 -25.858 476.347 0.551541 0.495489 -0.671038
9.88467 -25.8881 476.519 0.547028 0.548373 -0.632492
10.0742 -25.9154 476.647 0.521251 0.59097 -0.615672
10.2678 -25.9409 476.746 0.474075 0.548878 -0.688466
10.4577 -25.9681 476.872 0.486433 0.518261 -0.703412
10.6468 -25.9957 477.005 0.583948 0.51886 -0.62433
10.8367 -26.0231 477.133 0.533817 0.505592 -0.677802
11.0271 -26.0503 477.258 0.545791 0.486005 -0.682577
11.2145 -26.0798 477.407 0.63586 0.456733 -0.622155
11.396 -26.1102 477.596 0.642351 0.485222 -0.59325
11.5818 -26.1432 477.762 0.630529 0.518972 -0.577149
11.7646 -26.1707 477.94 0.581627 0.512052 -0.63207
11.953 -26.199 478.083 0.52071 0.531851 -0.667829
12.1455 -26.2227 478.191 0.600902 0.524812 -0.602901
12.3247 -26.2573 478.407 0.66044 0.476878 -0.580006
12.5147 -26.2862 478.543 0.620493 0.450597 -0.641834
12.7028 -26.3149 478.691 0.617277 0.424418 -0.662449
12.8871 -26.3445 478.867 0.683468 0.440107 -0.58239
13.0614 -26.3811 479.123 0.753707 0.473285 -0.45599
13.2347 -26.4173 479.387 0.761306 0.466679 -0.450138
13.4131 -26.451 479.612 0.742146 0.443052 -0.502915
13.5882 -26.4833 479.858 0.784907 0.401357 -0.472052
13.7625 -26.5225 480.124 0.778882 0.392145 -0.489453
13.9426 -26.5558 480.342 0.74257 0.444263 -0.501219
14.1162 -26.5923 480.61 0.760377 0.462586 -0.455896
14.2902 -26.6288 480.877 0.824389 0.423208 -0.375868
14.4495 -26.6727 481.259 0.839177 0.383973 -0.385157
14.6235 -26.7095 481.529 0.852955 0.364476 -0.373663
14.7825 -26.7539 481.918 0.881565 0.330573 -0.336995
14.9484 -26.7951 482.256 0.870854 0.326641 -0.367313
15.1089 -26.8391 482.638 0.894015 0.300854 -0.331999
15.2653 -26.8854 483.055 0.916275 0.25186 -0.311459
15.4245 -26.9305 483.452 0.927944 0.234423 -0.289768
15.5725 -26.9815 483.941 0.933048 0.208671 -0.29305
-4.03998 -24.5743 478.922 -0.611371 0.418947 -0.671349
-3.79232 -24.5804 478.7 -0.607918 0.422061 -0.672533
-3.54423 -24.5862 478.475 -0.574447 0.467529 -0.671884
-3.30527 -24.5951 478.302 -0.473096 0.534622 -0.700257
-3.07139 -24.6059 478.158 -0.482125 0.491354 -0.725346
-2.83051 -24.614 477.972 -0.537186 0.454485 -0.710546
-2.5916 -24.6227 477.796 -0.487086 0.519559 -0.702002
-2.35363 -24.6317 477.625 -0.472665 0.526754 -0.706483
-2.11404 -24.6401 477.443 -0.486834 0.496015 -0.719001
-1.88155 -24.6509 477.303 -0.418495 0.543294 -0.7278
-1.64997 -24.6621 477.168 -0.397325 0.539184 -0.742572
-1.41692 -24.6726 477.022 -0.384959 0.517552 -0.764164
-1.19113 -24.6858 476.92 -0.398766 0.517222 -0.757276
-0.954807 -24.6949 476.753 -0.385253 0.515443 -0.76544
-0.728757 -24.7078 476.648 -0.31676 0.509383 -0.80012
-0.507122 -24.7223 476.569 -0.337325 0.491917 -0.802639
-0.280918 -24.735 476.462 -0.335516 0.521834 -0.784295
-0.0554814 -24.7487 476.357 -0.300209 0.543739 -0.783724
0.168663 -24.7614 476.262 -0.285268 0.52478 -0.802015
0.390834 -24.7741 476.179 -0.293424 0.512439 -0.807037
0.613404 -24.7894 476.089 -0.26241 0.548015 -0.794242
0.835659 -24.8034 476.003 -0.226839 0.561605 -0.795703
1.0545 -24.8189 475.937 -0.250162 0.520605 -0.816327
1.27494 -24.8333 475.861 -0.242256 0.506995 -0.827205
1.49594 -24.8476 475.78 -0.225356 0.531813 -0.816327
1.71221 -24.863 475.73 -0.189896 0.568696 -0.800328
1.92964 -24.8793 475.67 -0.107664 0.598115 -0.794145
2.14546 -24.8956 475.621 -0.0799065 0.578703 -0.811614
2.35682 -24.9135 475.6 -0.098632 0.539075 -0.836463
2.57099 -24.9303 475.56 -0.1157 0.52751 -0.841633
2.78728 -24.9463 475.506 -0.118501 0.507873 -0.853242
2.99645 -24.965 475.498 -0.115493 0.506224 -0.854633
3.21 -24.982 475.462 -0.0462477 0.551147 -0.833126
3.4193 -25.0006 475.452 -0.0211481 0.570105 -0.821299
3.63372 -25.0172 475.409 -0.0777362 0.554455 -0.828575
3.84361 -25.0355 475.395 0.0172257 0.552013 -0.833657
4.04989 -25.0553 475.405 0.0417905 0.5321 -0.845649
4.26527 -25.0714 475.354 -0.0483755 0.492753 -0.868823
4.47072 -25.0915 475.369 0.00904821 0.538578 -0.842527
4.68158 -25.1094 475.347 0.0186707 0.58814 -0.808543
4.89021 -25.1281 475.339 0.0211052 0.594555 -0.803778
5.09941 -25.1469 475.331 0.0893193 0.59159 -0.801276
5.30324 -25.1674 475.353 0.134348 0.589165 -0.796765
5.50639 -25.1885 475.383 0.169381 0.570727 -0.803481
5.70894 -25.2095 475.414 0.183546 0.539851 -0.821506
5.9117 -25.2309 475.448 0.183479 0.529917 -0.827963
6.11478 -25.252 475.478 0.161046 0.522266 -0.837438
6.31968 -25.2722 475.495 0.115243 0.519387 -0.846733
6.52644 -25.2917 475.499 0.133906 0.52465 -0.840721
6.72943 -25.3128 475.53 0.187233 0.559891 -0.807134
6.93129 -25.3344 475.567 0.225438 0.583957 -0.779854
7.12873 -25.3578 475.635 0.311976 0.572551 -0.758193
7.32684 -25.3811 475.7 0.341424 0.53674 -0.771582
7.52596 -25.4036 475.754 0.277382 0.512868 -0.81242
7.72648 -25.4259 475.803 0.308775 0.498984 -0.809736
7.92528 -25.4492 475.867 0.362247 0.502042 -0.785322
8.12007 -25.4732 475.946 0.312167 0.521718 -0.793954
8.3235 -25.4944 475.977 0.264127 0.493874 -0.828447
8.52168 -25.5177 476.042 0.251822 0.522545 -0.814575
8.72009 -25.5408 476.105 0.348181 0.557521 -0.753618
8.91447 -25.5657 476.196 0.376788 0.509638 -0.773499
9.11087 -25.5899 476.273 0.269915 0.532805 -0.802038
9.31368 -25.611 476.306 0.267913 0.579173 -0.769923
9.51172 -25.6345 476.372 0.435678 0.550869 -0.711849
9.6986 -25.6651 476.521 0.593116 0.529457 -0.606539
9.8804 -25.6936 476.701 0.583318 0.545231 -0.602049
10.0688 -25.7214 476.838 0.453743 0.573495 -0.682071
10.2677 -25.7445 476.899 0.442896 0.547116 -0.710287
10.4591 -25.7711 477.016 0.535844 0.49909 -0.681015
10.6471 -25.7992 477.157 0.549701 0.519619 -0.654083
10.8348 -25.8275 477.3 0.504045 0.561248 -0.65646
11.0289 -25.852 477.397 0.537545 0.556049 -0.63392
11.2128 -25.8823 477.571 0.643778 0.516845 -0.564289
11.391 -25.9131 477.783 0.658297 0.508297 -0.555229
11.5751 -25.9473 477.963 0.60028 0.523976 -0.604246
11.7675 -25.9727 478.075 0.574989 0.516583 -0.634452
11.9541 -26.002 478.232 0.562451 0.492186 -0.664381
12.1418 -26.0307 478.382 0.597368 0.47541 -0.645861
12.331 -26.0572 478.517 0.630778 0.43907 -0.639794
12.5174 -26.0883 478.681 0.602169 0.420758 -0.678495
12.706 -26.1176 478.828 0.656569 0.436742 -0.614958
12.883 -26.1509 479.06 0.757346 0.405005 -0.512248
13.0547 -26.1876 479.334 0.77102 0.423368 -0.475696
13.2348 -26.2205 479.547 0.743993 0.444932 -0.498508
13.4131 -26.2575 479.781 0.739736 0.430744 -0.516963
13.5936 -26.287 479.985 0.763432 0.442473 -0.470521
13.764 -26.3249 480.276 0.786025 0.412388 -0.460544
13.9356 -26.3622 480.558 0.772403 0.419132 -0.477203
14.1125 -26.3971 480.802 0.796265 0.397295 -0.4562
14.2818 -26.4359 481.106 0.833856 0.357152 -0.420863
14.4572 -26.4718 481.365 0.845453 0.357014 -0.397178
14.6182 -26.5149 481.736 0.857768 0.348689 -0.37769
14.7861 -26.5548 482.057 0.886512 0.29014 -0.360437
14.9427 -26.6005 482.468 0.880282 0.293914 -0.37245
15.1155 -26.6383 482.754 0.879466 0.334306 -0.338789
15.2715 -26.6846 483.174 0.908285 0.286902 -0.304477
15.4239 -26.733 483.626 0.918033 0.263926 -0.295904
15.582 -26.7787 484.035 0.910571 0.298871 -0.285545
-4.0451 -24.3759 479.081 -0.620645 0.385812 -0.682605
-3.79613 -24.3817 478.851 -0.587829 0.419282 -0.691853
-3.55646 -24.3906 478.676 -0.550932 0.47551 -0.685831
-3.30784 -24.3963 478.446 -0.516263 0.506872 -0.690328
-3.06454 -24.4037 478.247 -0.511529 0.449911 -0.732065
-2.82803 -24.4135 478.087 -0.514429 0.398366 -0.759387
-2.59485 -24.4244 477.946 -0.528237 0.385962 -0.756306
-2.35272 -24.432 477.75 -0.538142 0.395673 -0.744208
-2.11662 -24.4418 477.589 -0.478457 0.450389 -0.753809
-1.88441 -24.4528 477.451 -0.450632 0.47826 -0.753789
-1.64689 -24.4619 477.28 -0.439235 0.484833 -0.756313
-1.41865 -24.4742 477.164 -0.386826 0.502253 -0.773374
-1.18881 -24.486 477.038 -0.415199 0.481237 -0.772024
-0.95873 -24.4975 476.909 -0.407728 0.503537 -0.761715
-0.729615 -24.5079 476.788 -0.32058 0.543828 -0.775551
-0.504093 -24.5224 476.683 -0.300633 0.508744 -0.806722
-0.2827 -24.5379 476.604 -0.324903 0.502236 -0.801372
-0.05647 -24.5504 476.497 -0.330108 0.521226 -0.786989
0.169211 -24.5624 476.392 -0.302976 0.504934 -0.808237
0.391365 -24.577 476.307 -0.260497 0.502963 -0.824117
0.609192 -24.5928 476.25 -0.257342 0.530056 -0.80797
0.831537 -24.6069 476.163 -0.271898 0.555375 -0.785894
1.05718 -24.6196 476.055 -0.254857 0.561699 -0.78711
1.27784 -24.6339 475.978 -0.202584 0.560042 -0.803314
1.4907 -24.6517 475.948 -0.179584 0.5526 -0.813869
1.71062 -24.6664 475.875 -0.16719 0.543687 -0.822467
1.92422 -24.6836 475.84 -0.141359 0.575013 -0.80584
2.14105 -24.6995 475.785 -0.124635 0.601464 -0.789118
2.3586 -24.7151 475.725 -0.10386 0.580816 -0.807382
2.57251 -24.7321 475.687 -0.138239 0.533755 -0.834264
2.78892 -24.748 475.633 -0.11334 0.546355 -0.829849
3.00393 -24.7645 475.588 -0.0540335 0.547949 -0.834765
3.21355 -24.7831 475.577 -0.0233996 0.532705 -0.845978
3.42325 -24.8016 475.565 -0.0446888 0.543269 -0.838369
3.63524 -24.8192 475.538 -0.0824832 0.554583 -0.82803
3.85027 -24.8355 475.491 -0.00318206 0.591272 -0.806466
4.05886 -24.8545 475.485 -0.00158497 0.593349 -0.804944
4.26802 -24.8731 475.476 0.0234178 0.596805 -0.802045
4.47359 -24.8932 475.49 0.0833446 0.589273 -0.803624
4.67808 -24.9137 475.511 0.026401 0.573643 -0.81868
4.88837 -24.9319 475.494 0.0182216 0.581149 -0.813593
5.09614 -24.951 475.493 0.0905968 0.599495 -0.795235
5.30052 -24.9716 475.514 0.112409 0.591931 -0.798111
5.51072 -24.9897 475.496 0.128697 0.564335 -0.815453
5.71362 -25.0108 475.526 0.170497 0.558256 -0.811962
5.91884 -25.0312 475.545 0.170489 0.552249 -0.81606
6.12161 -25.0522 475.575 0.15257 0.537761 -0.829177
6.32602 -25.0727 475.594 0.12516 0.540781 -0.8318
6.5292 -25.0938 475.625 0.189212 0.57338 -0.797141
6.72709 -25.1171 475.691 0.226511 0.601044 -0.766446
6.92922 -25.1385 475.726 0.228799 0.603368 -0.763936
7.13216 -25.1596 475.757 0.271238 0.576944 -0.770432
7.33239 -25.1819 475.806 0.296377 0.53624 -0.790321
7.52997 -25.2053 475.874 0.267205 0.503885 -0.821402
7.73239 -25.2267 475.909 0.324134 0.523408 -0.788024
7.92328 -25.2532 476.025 0.369362 0.53537 -0.759573
8.12237 -25.2757 476.079 0.266489 0.530807 -0.804505
8.32419 -25.2975 476.12 0.294792 0.541641 -0.787225
8.51762 -25.3229 476.219 0.320048 0.554245 -0.768363
8.71962 -25.3443 476.256 0.292919 0.57506 -0.763875
8.92075 -25.3664 476.301 0.372222 0.559603 -0.740469
9.113 -25.3923 476.408 0.329304 0.556641 -0.762699
9.31299 -25.4151 476.464 0.283278 0.568738 -0.772198
9.50945 -25.4383 476.535 0.482773 0.559499 -0.673714
9.69315 -25.4687 476.708 0.605213 0.526438 -0.597143
9.88069 -25.498 476.852 0.563031 0.536597 -0.628537
10.0719 -25.5234 476.967 0.417632 0.56716 -0.709868
10.2705 -25.5467 477.032 0.428058 0.51555 -0.742277
10.4592 -25.5745 477.168 0.564823 0.491344 -0.66299
10.644 -25.604 477.333 0.576555 0.512314 -0.636489
10.8327 -25.6319 477.47 0.524066 0.521531 -0.67332
11.0225 -25.6593 477.6 0.55702 0.537743 -0.632899
11.2076 -25.6898 477.767 0.642905 0.518598 -0.563674
11.3918 -25.719 477.938 0.655935 0.474297 -0.58719
11.5786 -25.7493 478.094 0.596867 0.466284 -0.652938
11.7653 -25.7771 478.248 0.555179 0.474472 -0.68312
11.9574 -25.8037 478.364 0.572678 0.438366 -0.69273
12.1478 -25.8315 478.495 0.590877 0.415531 -0.691519
12.3342 -25.8608 478.655 0.609021 0.419183 -0.673335
12.5225 -25.8892 478.802 0.634603 0.437293 -0.637223
12.7037 -25.9212 479.003 0.676625 0.454295 -0.579478
12.8882 -25.9516 479.18 0.770384 0.419145 -0.480443
13.0543 -25.991 479.498 0.773504 0.417639 -0.476727
13.2351 -26.0225 479.703 0.73895 0.424524 -0.523194
13.4112 -26.0582 479.95 0.775556 0.375969 -0.507109
13.5815 -26.0959 480.24 0.76276 0.422253 -0.489796
13.7645 -26.1276 480.435 0.785727 0.40568 -0.466965
13.9365 -26.1647 480.715 0.783958 0.375547 -0.494343
14.1191 -26.1968 480.916 0.791997 0.400699 -0.460631
14.2862 -26.2365 481.237 0.828307 0.391948 -0.400354
14.4487 -26.2787 481.595 0.826676 0.420287 -0.374119
14.618 -26.3177 481.904 0.831671 0.400121 -0.385002
14.7908 -26.3551 482.187 0.881503 0.306016 -0.359591
14.9443 -26.4022 482.622 0.897153 0.276728 -0.344293
15.1029 -26.4469 483.021 0.881441 0.316838 -0.35025
-3.3091 -24.1968 478.583 -0.602211 0.36954 -0.70766
-3.06293 -24.2033 478.366 -0.548394 0.442545 -0.70952
-2.82102 -24.2113 478.174 -0.511874 0.42931 -0.744096
-2.5808 -24.2198 477.991 -0.518489 0.38867 -0.761646
-2.34699 -24.2305 477.846 -0.51316 0.382801 -0.7682
-2.11274 -24.241 477.696 -0.463072 0.444389 -0.766866
-1.87997 -24.252 477.555 -0.449399 0.472273 -0.758286
-1.64936 -24.2636 477.426 -0.431494 0.496017 -0.753512
-1.41628 -24.2743 477.281 -0.406951 0.481995 -0.775933
-1.18667 -24.2862 477.156 -0.406256 0.443715 -0.798795
-0.959094 -24.2988 477.043 -0.400722 0.459181 -0.792827
-0.729439 -24.3105 476.916 -0.376785 0.489986 -0.786096
-0.502021 -24.3245 476.801 -0.301979 0.512787 -0.803653
-0.280941 -24.3388 476.726 -0.306501 0.489301 -0.816482
-0.0545835 -24.3507 476.619 -0.35942 0.494502 -0.791382
0.173905 -24.3626 476.496 -0.30989 0.510253 -0.802253
0.393544 -24.3778 476.428 -0.232349 0.491132 -0.839526
0.612892 -24.394 476.359 -0.23514 0.482483 -0.843753
0.83224 -24.4083 476.293 -0.284 0.496246 -0.820417
1.05344 -24.4229 476.213 -0.273347 0.53411 -0.800005
1.27385 -24.4384 476.137 -0.215196 0.558811 -0.800887
1.49738 -24.4511 476.042 -0.196641 0.533047 -0.822918
1.7136 -24.4673 475.991 -0.13041 0.536888 -0.833513
1.92485 -24.4855 475.972 -0.114326 0.536115 -0.836367
2.14119 -24.5016 475.92 -0.173014 0.522609 -0.834833
2.35749 -24.5192 475.867 -0.166169 0.55832 -0.812814
2.57663 -24.5327 475.798 -0.120442 0.552735 -0.824608
2.78592 -24.5515 475.79 -0.11553 0.539937 -0.833739
3.00249 -24.5675 475.735 -0.0665067 0.591566 -0.803509
3.21201 -24.5861 475.725 0.000185309 0.601674 -0.798742
3.42339 -24.604 475.702 -0.0264391 0.552768 -0.832916
3.63341 -24.6224 475.689 -0.0338352 0.556305 -0.830289
3.84048 -24.642 475.694 0.00390226 0.621221 -0.783626
4.04937 -24.6608 475.687 0.00631071 0.613968 -0.789306
4.26161 -24.6783 475.658 0.0143933 0.592051 -0.805772
4.4717 -24.6966 475.643 0.0591105 0.597395 -0.799766
4.68186 -24.7149 475.627 0.0339821 0.545388 -0.837494
4.89007 -24.734 475.623 0.0446346 0.543184 -0.838426
5.09528 -24.7542 475.64 0.0806194 0.588905 -0.804171
5.30431 -24.7728 475.628 0.0746484 0.59051 -0.803571
5.50825 -24.7937 475.655 0.125888 0.577564 -0.806581
5.7113 -24.8148 475.686 0.162487 0.575372 -0.801589
5.91494 -24.8356 475.712 0.149336 0.592936 -0.791281
6.11995 -24.8559 475.729 0.154579 0.608268 -0.778534
6.32281 -24.877 475.76 0.179164 0.617805 -0.765648
6.52441 -24.8988 475.801 0.233651 0.622314 -0.747083
6.72606 -24.9205 475.841 0.230466 0.600569 -0.765638
6.92886 -24.9417 475.874 0.199993 0.595858 -0.777789
7.12994 -24.9637 475.918 0.220054 0.607549 -0.763191
7.33182 -24.9853 475.956 0.245741 0.591394 -0.768027
7.53455 -25.0065 475.989 0.299006 0.578713 -0.75874
7.72642 -25.0325 476.097 0.343349 0.589549 -0.731125
7.9289 -25.0538 476.131 0.335395 0.562828 -0.75547
8.12558 -25.0777 476.207 0.285911 0.549312 -0.785182
8.32505 -25.1004 476.263 0.31532 0.566653 -0.761234
8.52408 -25.1237 476.327 0.340573 0.557388 -0.757185
8.71794 -25.148 476.412 0.296603 0.558301 -0.774808
8.91611 -25.1717 476.483 0.354912 0.565686 -0.744337
9.11228 -25.1959 476.563 0.327295 0.603237 -0.727312
9.31491 -25.2173 476.597 0.334534 0.628506 -0.702187
9.5042 -25.2446 476.727 0.488281 0.614084 -0.620067
9.69468 -25.2702 476.847 0.587803 0.551267 -0.592108
9.8756 -25.3024 477.038 0.554049 0.486044 -0.675863
10.0709 -25.3272 477.126 0.359853 0.540185 -0.760727
10.2734 -25.3488 477.164 0.44892 0.55094 -0.703517
10.4572 -25.3801 477.337 0.59247 0.484593 -0.643544
10.6473 -25.407 477.464 0.57382 0.474601 -0.667447
10.8356 -25.4339 477.603 0.568825 0.47274 -0.673019
11.022 -25.4614 477.756 0.602119 0.467191 -0.647445
11.208 -25.492 477.917 0.629424 0.444372 -0.637462
11.3952 -25.5207 478.068 0.633952 0.441215 -0.635164
11.5786 -25.5512 478.248 0.591899 0.449476 -0.669049
11.7737 -25.5786 478.347 0.536809 0.413026 -0.735694
11.9636 -25.6037 478.475 0.564256 0.401711 -0.721279
12.1492 -25.6296 478.634 0.586865 0.478081 -0.653474
12.3381 -25.6581 478.777 0.603836 0.532592 -0.593067
12.5199 -25.6923 478.977 0.641388 0.523105 -0.561232
12.7045 -25.7225 479.154 0.681688 0.507446 -0.527068
12.8787 -25.7592 479.411 0.748644 0.482173 -0.455017
13.0541 -25.795 479.661 0.757556 0.433802 -0.487775
13.236 -25.826 479.859 0.728801 0.40693 -0.550687
13.4172 -25.8583 480.065 0.783344 0.417335 -0.460656
13.5848 -25.8963 480.375 0.765126 0.417902 -0.489838
13.7689 -25.9283 480.564 0.77619 0.376753 -0.505556
13.9363 -25.9676 480.88 0.80248 0.371115 -0.467225
14.1087 -26.0046 481.159 0.804784 0.404065 -0.434804
14.2743 -26.045 481.493 0.838067 0.399822 -0.371196
14.443 -26.0841 481.805 0.824238 0.406748 -0.39394
14.6173 -26.1205 482.075 0.810655 0.407366 -0.420585
14.7864 -26.1596 482.387 0.861128 0.366372 -0.352462
14.9453 -26.2039 482.781 0.887998 0.33312 -0.317004
15.1086 -26.2463 483.143 0.912557 0.25658 -0.318444
-3.30778 -23.9963 478.704 -0.55679 0.401387 -0.727236
-3.06124 -24.0028 478.486 -0.580585 0.390858 -0.714248
-2.821 -24.0115 478.304 -0.543798 0.412512 -0.730834
-2.58164 -24.0204 478.126 -0.508789 0.439562 -0.740215
-2.3438 -24.0298 477.957 -0.451493 0.464334 -0.761937
-2.11509 -24.0424 477.841 -0.428398 0.48844 -0.760198
-1.88142 -24.0531 477.695 -0.42666 0.489847 -0.76027
-1.65008 -24.0646 477.561 -0.459733 0.462278 -0.758251
-1.41033 -24.073 477.376 -0.435863 0.493643 -0.752556
-1.18273 -24.0857 477.264 -0.369732 0.522249 -0.768475
-0.953478 -24.0978 477.141 -0.366714 0.491017 -0.790205
-0.72874 -24.1118 477.049 -0.377056 0.459167 -0.80436
-0.500669 -24.1235 476.927 -0.337038 0.471583 -0.814871
-0.277009 -24.1377 476.836 -0.288463 0.497306 -0.818215
-0.0560967 -24.1526 476.761 -0.353987 0.490483 -0.796316
0.17347 -24.1639 476.633 -0.32856 0.544801 -0.771518
0.398441 -24.1772 476.531 -0.225381 0.554573 -0.801032
0.615373 -24.1937 476.479 -0.204924 0.514683 -0.832531
0.834698 -24.2082 476.413 -0.239151 0.508346 -0.827279
1.05547 -24.2238 476.335 -0.262983 0.501019 -0.824512
1.27734 -24.2379 476.251 -0.258533 0.518675 -0.814946
1.49555 -24.2528 476.189 -0.191986 0.560326 -0.805714
1.71076 -24.2703 476.145 -0.123544 0.579568 -0.805505
1.92959 -24.2856 476.078 -0.12691 0.532056 -0.837144
2.14333 -24.3028 476.043 -0.136896 0.47438 -0.869611
2.35668 -24.3201 476.01 -0.189575 0.506282 -0.841273
2.57702 -24.3333 475.933 -0.131302 0.578015 -0.805394
2.78999 -24.3521 475.901 -0.0406345 0.583044 -0.811424
2.99803 -24.3714 475.901 -0.0631544 0.540308 -0.839094
3.21292 -24.3881 475.857 -0.0772049 0.540755 -0.837629
3.42811 -24.4045 475.81 -0.0220202 0.549063 -0.835491
3.6341 -24.4246 475.823 0.0588569 0.517607 -0.853592
3.84109 -24.4442 475.829 -0.0255005 0.488326 -0.872288
4.05965 -24.4593 475.759 -0.0446132 0.486052 -0.87279
4.2641 -24.4799 475.782 0.0152635 0.520807 -0.853538
4.47328 -24.4986 475.772 -0.0211445 0.542839 -0.839571
4.68532 -24.5162 475.744 0.0327957 0.558423 -0.828908
4.88859 -24.5372 475.774 0.112149 0.546475 -0.829932
5.09409 -24.5574 475.79 0.0787316 0.535316 -0.840975
5.30076 -24.5771 475.796 0.0590843 0.576474 -0.814976
5.51091 -24.5954 475.779 0.127235 0.580165 -0.8045
5.71405 -24.6165 475.81 0.186394 0.5514 -0.813152
5.91579 -24.6383 475.851 0.172961 0.549091 -0.81767
6.11866 -24.6593 475.881 0.17304 0.55677 -0.812443
6.3208 -24.6809 475.919 0.198218 0.563833 -0.801749
6.52345 -24.702 475.949 0.201872 0.559678 -0.803746
6.72683 -24.7232 475.981 0.218091 0.592081 -0.775807
6.92659 -24.746 476.038 0.219606 0.628489 -0.746174
7.12914 -24.767 476.069 0.200903 0.624583 -0.754675
7.33217 -24.7882 476.099 0.239641 0.605714 -0.758738
7.52819 -24.8124 476.181 0.326695 0.583536 -0.743476
7.72777 -24.8348 476.233 0.308329 0.549703 -0.776376
7.92754 -24.8575 476.288 0.307032 0.540424 -0.783373
8.12321 -24.8818 476.371 0.313144 0.584203 -0.748764
8.32427 -24.9039 476.416 0.306482 0.596315 -0.741942
8.51919 -24.9285 476.504 0.327647 0.579034 -0.746571
8.72159 -24.95 476.54 0.320351 0.582789 -0.746815
8.9186 -24.9739 476.615 0.398718 0.556354 -0.729036
9.1082 -25.0009 476.741 0.371219 0.577136 -0.7274
9.30421 -25.0252 476.823 0.38273 0.632786 -0.673127
9.49698 -25.051 476.929 0.461294 0.612335 -0.64207
9.69095 -25.0762 477.026 0.501052 0.561658 -0.658398
9.88739 -25.1004 477.106 0.549691 0.482647 -0.681829
10.0711 -25.1303 477.277 0.412097 0.494017 -0.765587
10.2702 -25.152 477.337 0.430716 0.562328 -0.705883
10.4611 -25.179 477.459 0.566766 0.518627 -0.640158
10.6482 -25.2087 477.61 0.560388 0.513617 -0.649741
10.836 -25.2369 477.755 0.570773 0.499463 -0.651732
11.0245 -25.2628 477.891 0.60048 0.432217 -0.672765
11.2129 -25.2925 478.036 0.631921 0.429961 -0.644833
11.3947 -25.3241 478.227 0.62628 0.43802 -0.644912
11.5859 -25.3494 478.348 0.535301 0.47622 -0.697615
11.7792 -25.377 478.459 0.518641 0.504495 -0.690287
11.966 -25.4061 478.616 0.609207 0.520359 -0.598409
12.1454 -25.4386 478.828 0.621264 0.552414 -0.55576
12.3282 -25.4705 479.018 0.599313 0.574068 -0.557916
12.5176 -25.4977 479.156 0.634451 0.561091 -0.531648
12.6946 -25.5291 479.385 0.709107 0.48464 -0.512143
12.8762 -25.5634 479.59 0.737391 0.429334 -0.521466
13.06 -25.5943 479.775 0.738142 0.398722 -0.544212
13.2362 -25.6288 480.019 0.758292 0.422795 -0.496224
13.4035 -25.6685 480.333 0.75042 0.486892 -0.446996
13.5867 -25.699 480.524 0.723301 0.482851 -0.493651
13.7658 -25.7326 480.751 0.769772 0.427247 -0.474248
13.9378 -25.7695 481.031 0.821714 0.365827 -0.436986
14.1098 -25.8066 481.315 0.845149 0.318004 -0.429648
14.277 -25.8462 481.637 0.858137 0.321443 -0.400345
14.4428 -25.8866 481.972 0.842348 0.324563 -0.430243
14.6137 -25.9246 482.269 0.829206 0.369824 -0.419103
14.7804 -25.9649 482.601 0.855832 0.383477 -0.347126
14.9399 -26.0088 482.991 0.86148 0.374866 -0.342532
15.1101 -26.0476 483.3 0.896479 0.329634 -0.296085
-3.30235 -23.7943 478.801 -0.54253 0.45351 -0.707099
-3.05485 -23.8006 478.577 -0.555376 0.450598 -0.698941
-2.8168 -23.8102 478.408 -0.51843 0.45572 -0.723567
-2.57692 -23.819 478.228 -0.49387 0.464733 -0.734926
-2.34491 -23.8306 478.093 -0.430856 0.478836 -0.764905
-2.11331 -23.8422 477.961 -0.439696 0.44883 -0.777959
-1.87791 -23.8524 477.804 -0.456661 0.447841 -0.7687
-1.64482 -23.8634 477.66 -0.443312 0.44215 -0.77973
-1.42047 -23.8774 477.569 -0.433542 0.465264 -0.771732
-1.1851 -23.8873 477.41 -0.406419 0.502367 -0.763185
-0.955057 -23.8987 477.283 -0.383199 0.529164 -0.757062
-0.720227 -23.9058 477.13 -0.351589 0.534169 -0.768797
-0.498962 -23.9182 477.052 -0.311537 0.501186 -0.807315
-0.275973 -23.9384 476.962 -0.282658 0.502128 -0.817296
-0.0523138 -23.9523 476.871 -0.296474 0.500933 -0.813123
0.167044 -23.9679 476.806 -0.348128 0.508263 -0.787703
0.397898 -23.9791 476.668 -0.269325 0.564051 -0.780584
0.615709 -23.9964 476.61 -0.19384 0.570298 -0.798239
0.83724 -24.0108 476.529 -0.236932 0.53641 -0.810017
1.05743 -24.0246 476.457 -0.237106 0.526323 -0.816557
1.27551 -24.0404 476.397 -0.21112 0.54873 -0.808903
1.4941 -24.0559 476.333 -0.174389 0.565675 -0.805978
1.71251 -24.0715 476.27 -0.189951 0.548335 -0.8144
1.93213 -24.0865 476.198 -0.19472 0.522917 -0.829845
2.15149 -24.1017 476.128 -0.0872291 0.508644 -0.856547
2.35814 -24.1216 476.138 -0.101884 0.505306 -0.856904
2.57283 -24.1384 476.096 -0.137461 0.549018 -0.824429
2.78676 -24.1555 476.059 -0.0952684 0.588244 -0.803052
3.00782 -24.1698 475.976 -0.0560015 0.575827 -0.815651
3.21291 -24.1903 475.995 -0.0619045 0.575612 -0.815376
3.42751 -24.207 475.953 -0.0527924 0.594193 -0.802588
3.64035 -24.2244 475.921 0.0259683 0.578542 -0.815239
3.85048 -24.2429 475.907 -0.0195874 0.552203 -0.83348
4.05691 -24.2628 475.917 0.0146519 0.604736 -0.796291
4.26538 -24.2818 475.913 0.0519938 0.59912 -0.798969
4.47526 -24.3003 475.9 0.00345252 0.565128 -0.824996
4.68266 -24.3198 475.903 0.0264491 0.602078 -0.797999
4.89548 -24.3371 475.87 0.0968187 0.585923 -0.804562
5.09883 -24.3581 475.899 0.135657 0.542549 -0.828998
5.30209 -24.3791 475.928 0.0666625 0.537577 -0.840576
5.5107 -24.3983 475.925 0.0939141 0.569556 -0.816569
5.71392 -24.4192 475.953 0.181076 0.589646 -0.787102
5.918 -24.4399 475.977 0.183577 0.562572 -0.80611
6.12128 -24.461 476.007 0.186848 0.538785 -0.821461
6.32448 -24.4822 476.038 0.193238 0.533746 -0.823271
6.5266 -24.5036 476.074 0.252231 0.537864 -0.804414
6.72055 -24.5286 476.168 0.274312 0.580427 -0.766718
6.92316 -24.5501 476.204 0.211028 0.601891 -0.770191
7.12618 -24.5712 476.234 0.180217 0.608879 -0.772521
7.32923 -24.5923 476.265 0.228784 0.62194 -0.748898
7.53279 -24.6134 476.296 0.275908 0.581558 -0.765287
7.73186 -24.636 476.351 0.297633 0.5262 -0.796573
7.92904 -24.6599 476.425 0.372964 0.492983 -0.786045
8.12222 -24.6852 476.525 0.33548 0.523573 -0.78315
8.32299 -24.7074 476.573 0.291173 0.564422 -0.772429
8.52315 -24.7299 476.625 0.336263 0.533697 -0.775948
8.71633 -24.7553 476.726 0.315535 0.516051 -0.796322
8.91786 -24.7772 476.769 0.415366 0.561512 -0.715664
9.10722 -24.8044 476.898 0.45339 0.572104 -0.683472
9.30257 -24.829 476.985 0.404619 0.553713 -0.727794
9.49842 -24.8534 477.069 0.429398 0.530095 -0.731175
9.69252 -24.8786 477.166 0.435333 0.529392 -0.728169
9.88392 -24.9051 477.282 0.512737 0.50723 -0.69269
10.0751 -24.9316 477.401 0.499897 0.487167 -0.716081
10.2671 -24.9579 477.514 0.450954 0.487093 -0.747918
10.46 -24.9837 477.621 0.557904 0.521771 -0.645367
10.6428 -25.0141 477.802 0.537458 0.558835 -0.631539
10.8413 -25.0376 477.87 0.515906 0.498247 -0.696843
11.0299 -25.0655 478.01 0.608573 0.443721 -0.657838
11.2116 -25.0969 478.202 0.628133 0.462469 -0.625757
11.4025 -25.126 478.33 0.619428 0.464997 -0.632524
11.5823 -25.1557 478.534 0.538202 0.551566 -0.637271
11.7753 -25.1818 478.644 0.550552 0.591432 -0.589153
11.955 -25.2141 478.854 0.63702 0.544517 -0.545625
12.142 -25.2421 479.009 0.636067 0.538656 -0.552511
12.3277 -25.2728 479.178 0.622151 0.530618 -0.57565
12.5104 -25.3039 479.369 0.624521 0.499125 -0.600706
12.7031 -25.3304 479.486 0.706733 0.393878 -0.587697
12.8794 -25.3647 479.726 0.739894 0.335564 -0.583056
13.06 -25.397 479.936 0.7568 0.418681 -0.501956
13.2269 -25.4359 480.251 0.784477 0.449138 -0.427635
13.4045 -25.4698 480.485 0.754384 0.428502 -0.497283
13.5848 -25.5026 480.702 0.72058 0.444168 -0.532428
13.7624 -25.5349 480.935 0.747542 0.461469 -0.477731
13.9413 -25.57 481.168 0.79296 0.419645 -0.441715
14.1106 -25.6087 481.473 0.843171 0.350843 -0.407396
14.2747 -25.6497 481.82 0.850984 0.330837 -0.407888
14.449 -25.6859 482.089 0.855308 0.325276 -0.40329
14.6078 -25.7297 482.481 0.855768 0.347214 -0.38354
14.7765 -25.7689 482.798 0.869685 0.336402 -0.361223
14.937 -25.8122 483.181 0.873717 0.336633 -0.351138
15.0985 -25.8553 483.559 0.897755 0.32466 -0.297712
-3.30615 -23.5954 478.953 -0.553388 0.415734 -0.721752
-3.0626 -23.6032 478.753 -0.546693 0.489003 -0.679708
-2.81697 -23.6103 478.539 -0.503616 0.495479 -0.707722
-2.58314 -23.6214 478.395 -0.499604 0.454762 -0.737284
-2.33872 -23.6286 478.186 -0.459111 0.463694 -0.757763
-2.10944 -23.6412 478.068 -0.437828 0.445856 -0.780717
-1.87687 -23.6525 477.929 -0.46357 0.44891 -0.763926
-1.64209 -23.6629 477.775 -0.411188 0.487997 -0.769924
-1.41059 -23.6745 477.64 -0.414367 0.430709 -0.801741
-1.18181 -23.6846 477.525 -0.404881 0.435427 -0.804036
-0.959094 -23.6938 477.444 -0.395139 0.502089 -0.769267
-0.728268 -23.7099 477.308 -0.389141 0.537054 -0.748426
-0.49613 -23.7241 477.164 -0.295716 0.563822 -0.77114
-0.274592 -23.7389 477.087 -0.27663 0.52033 -0.807919
-0.0515154 -23.7533 476.999 -0.277311 0.503355 -0.818372
0.17223 -23.7676 476.906 -0.305215 0.498278 -0.811519
0.393163 -23.782 476.832 -0.286927 0.522478 -0.802926
0.615587 -23.7965 476.746 -0.23351 0.551766 -0.800642
0.836347 -23.8101 476.672 -0.246076 0.545017 -0.8015
1.05825 -23.8247 476.588 -0.208409 0.548859 -0.809518
1.27488 -23.8422 476.536 -0.19922 0.53219 -0.822852
1.49551 -23.857 476.46 -0.202104 0.532808 -0.821748
1.7121 -23.8733 476.408 -0.217205 0.556634 -0.80186
1.93521 -23.8872 476.315 -0.206857 0.569221 -0.795737
2.14919 -23.9044 476.279 -0.0793011 0.572664 -0.815946
2.36304 -23.9216 476.243 -0.032633 0.564139 -0.825035
2.57382 -23.94 476.227 -0.084853 0.567194 -0.819201
2.78853 -23.9568 476.185 -0.117483 0.574426 -0.810081
2.99825 -23.9755 476.175 -0.050281 0.608523 -0.791941
3.2117 -23.9928 476.141 -0.0290477 0.618219 -0.785469
3.42451 -24.0103 476.111 -0.0763238 0.589626 -0.804062
3.63675 -24.028 476.083 -0.00665344 0.605752 -0.795626
3.84317 -24.0479 476.093 0.0627547 0.61991 -0.78216
4.0514 -24.0672 476.093 0.00752681 0.606957 -0.794699
4.2676 -24.0833 476.039 0.00201522 0.59266 -0.80545
4.47262 -24.1037 476.058 0.0587167 0.576649 -0.814879
4.6811 -24.1228 476.054 0.00461653 0.586675 -0.809809
4.89123 -24.1412 476.039 0.043657 0.615796 -0.786695
5.09829 -24.1608 476.044 0.125882 0.615308 -0.77817
5.30532 -24.1805 476.049 0.11611 0.597255 -0.793602
5.50883 -24.2015 476.078 0.134433 0.598944 -0.789426
5.71319 -24.2222 476.101 0.142901 0.591326 -0.79367
5.91924 -24.2421 476.112 0.151316 0.553406 -0.819052
6.12257 -24.2632 476.142 0.181012 0.533257 -0.826361
6.32572 -24.2845 476.174 0.209362 0.536499 -0.817518
6.52551 -24.3068 476.226 0.316881 0.521601 -0.79216
6.72245 -24.3306 476.3 0.299418 0.469952 -0.830358
6.92582 -24.3518 476.332 0.218775 0.499496 -0.838237
7.12374 -24.3747 476.393 0.211309 0.565084 -0.797514
7.32755 -24.3959 476.424 0.179959 0.568248 -0.802938
7.53077 -24.417 476.454 0.206139 0.564481 -0.799292
7.73366 -24.4382 476.485 0.270738 0.581744 -0.766991
7.93391 -24.4607 476.539 0.390975 0.553196 -0.735604
8.12511 -24.4869 476.653 0.379631 0.499101 -0.77896
8.32445 -24.5097 476.711 0.263149 0.536712 -0.801681
8.52568 -24.5318 476.756 0.305419 0.567882 -0.764349
8.72614 -24.5541 476.807 0.402446 0.537439 -0.741078
8.91142 -24.5829 476.964 0.440722 0.575019 -0.689287
9.10786 -24.6071 477.044 0.409362 0.588201 -0.697454
9.30471 -24.631 477.121 0.37973 0.575298 -0.724456
9.50041 -24.6555 477.206 0.419166 0.587156 -0.692494
9.69148 -24.6821 477.325 0.431223 0.566948 -0.701866
9.89046 -24.7052 477.388 0.480006 0.53559 -0.694793
10.0769 -24.7338 477.54 0.470014 0.552169 -0.688619
10.2767 -24.7566 477.598 0.522057 0.535561 -0.6638
10.4523 -24.7901 477.83 0.601677 0.472596 -0.643924
10.6475 -24.815 477.922 0.48179 0.438571 -0.75864
10.8432 -24.8403 478.012 0.507975 0.433285 -0.744463
11.028 -24.8685 478.177 0.62898 0.460637 -0.626257
11.2135 -24.8962 478.339 0.619511 0.490689 -0.612724
11.3994 -24.931 478.51 0.641821 0.527927 -0.556201
11.576 -24.9614 478.736 0.590997 0.54404 -0.595603
11.7714 -24.9883 478.834 0.564371 0.535978 -0.627864
11.9568 -25.0161 478.998 0.644591 0.505508 -0.573554
12.1392 -25.0472 479.19 0.634183 0.499901 -0.589839
12.3237 -25.0778 479.367 0.598078 0.51364 -0.615205
12.5194 -25.1021 479.46 0.576034 0.459181 -0.676267
12.7043 -25.1293 479.629 0.677936 0.400577 -0.616393
12.8867 -25.164 479.832 0.78762 0.368073 -0.494143
13.0478 -25.2054 480.189 0.801602 0.381774 -0.46009
13.2297 -25.2372 480.39 0.780078 0.379174 -0.4977
13.4061 -25.2716 480.635 0.771656 0.34585 -0.533793
13.5834 -25.3076 480.879 0.76855 0.369132 -0.522563
13.7583 -25.3415 481.134 0.763393 0.402925 -0.504859
13.9356 -25.3755 481.376 0.770741 0.44832 -0.452734
14.1096 -25.4115 481.645 0.824132 0.396673 -0.404298
14.2789 -25.4499 481.952 0.839763 0.368871 -0.398412
14.4432 -25.4908 482.3 0.849088 0.375903 -0.371143
14.6083 -25.5315 482.643 0.86291 0.328837 -0.383736
14.7791 -25.5696 482.944 0.889433 0.263538 -0.37344
14.9328 -25.6162 483.382 0.887251 0.314307 -0.337635
15.1003 -25.6562 483.713 0.8901 0.333653 -0.31048
-3.30319 -23.3941 479.064 -0.46918 0.494464 -0.731693
-3.06477 -23.4038 478.895 -0.575265 0.426424 -0.698021
-2.81442 -23.4093 478.654 -0.547639 0.457683 -0.700441
-2.57453 -23.4184 478.474 -0.493574 0.478468 -0.72626
-2.34151 -23.4291 478.335 -0.478861 0.459428 -0.748076
-2.10499 -23.4399 478.172 -0.408637 0.513243 -0.754717
-1.87671 -23.4528 478.059 -0.419457 0.51642 -0.746569
-1.64278 -23.4633 477.911 -0.448968 0.512755 -0.731786
-1.40567 -23.4733 477.742 -0.374409 0.550999 -0.7458
-1.18356 -23.4882 477.664 -0.311616 0.53478 -0.785433
-0.955476 -23.5014 477.548 -0.363997 0.484094 -0.795713
-0.727633 -23.5132 477.435 -0.394334 0.499429 -0.771408
-0.500279 -23.5261 477.323 -0.347269 0.551486 -0.758464
-0.27144 -23.5395 477.199 -0.282573 0.560329 -0.778578
-0.0498572 -23.5537 477.122 -0.272331 0.525251 -0.806193
0.172058 -23.5684 477.042 -0.276234 0.518789 -0.809044
0.395827 -23.5818 476.949 -0.262804 0.522226 -0.811304
0.616008 -23.5984 476.877 -0.247972 0.520682 -0.816945
0.836614 -23.6126 476.803 -0.252532 0.526003 -0.812126
1.05819 -23.6273 476.722 -0.230412 0.544799 -0.806291
1.27892 -23.6431 476.645 -0.193321 0.551506 -0.811461
1.49488 -23.6588 476.599 -0.171006 0.526302 -0.832925
1.71046 -23.6755 476.554 -0.210397 0.52688 -0.823487
1.93051 -23.6906 476.481 -0.219271 0.557331 -0.800813
2.15141 -23.7053 476.401 -0.0899747 0.586335 -0.805056
2.35894 -23.7249 476.406 -0.0239843 0.577637 -0.815942
2.57195 -23.7425 476.376 -0.0742959 0.555743 -0.828028
2.78577 -23.7597 476.341 -0.0745584 0.573996 -0.815457
3.00019 -23.7767 476.301 -0.0422788 0.576095 -0.816288
3.20999 -23.7955 476.291 -0.0773327 0.567161 -0.819968
3.4264 -23.8117 476.237 -0.0599422 0.568004 -0.82084
3.63449 -23.831 476.237 0.0130789 0.583755 -0.811825
3.84613 -23.849 476.214 0.0383674 0.586778 -0.808839
4.05453 -23.8682 476.212 -0.0244111 0.529299 -0.848084
4.2645 -23.8867 476.199 -0.0289111 0.526145 -0.849904
4.47636 -23.9045 476.174 0.0695054 0.547441 -0.833953
4.68009 -23.9255 476.201 0.0448637 0.544844 -0.837337
4.89017 -23.944 476.187 0.0424908 0.553287 -0.831906
5.09583 -23.9642 476.203 0.0953775 0.573769 -0.813445
5.30149 -23.9844 476.217 0.120519 0.594918 -0.7947
5.50696 -24.0047 476.233 0.124197 0.600955 -0.789574
5.71488 -24.024 476.232 0.0905116 0.591801 -0.800986
5.92241 -24.0434 476.234 0.129236 0.589661 -0.797244
6.12577 -24.0645 476.264 0.189228 0.596589 -0.77992
6.32779 -24.0861 476.303 0.210651 0.592935 -0.777209
6.53102 -24.1072 476.334 0.246213 0.581069 -0.775718
6.73396 -24.1285 476.366 0.314447 0.545652 -0.77678
6.92452 -24.1548 476.484 0.300573 0.547832 -0.780728
7.12806 -24.176 476.515 0.210692 0.557115 -0.803263
7.33121 -24.1971 476.544 0.178807 0.535672 -0.825278
7.53443 -24.2182 476.575 0.246185 0.525519 -0.814385
7.72869 -24.2431 476.668 0.268383 0.553047 -0.788739
7.93223 -24.2644 476.7 0.317654 0.572617 -0.755781
8.13004 -24.2874 476.764 0.39141 0.53958 -0.745421
8.32328 -24.313 476.867 0.310585 0.583854 -0.750101
8.5239 -24.3353 476.917 0.286581 0.632096 -0.719948
8.71863 -24.3601 477.009 0.444518 0.615125 -0.651171
8.90808 -24.3872 477.137 0.439715 0.599437 -0.668824
9.10878 -24.4095 477.187 0.38529 0.568561 -0.726836
9.29788 -24.4368 477.32 0.414897 0.551915 -0.72336
9.49499 -24.4607 477.396 0.401987 0.561564 -0.723224
9.69199 -24.4847 477.473 0.416604 0.535086 -0.734931
9.88479 -24.5123 477.583 0.495463 0.535228 -0.68414
10.0719 -24.5388 477.729 0.469447 0.564879 -0.678625
10.2672 -24.5636 477.819 0.48521 0.544634 -0.684065
10.4647 -24.5904 477.899 0.516419 0.529699 -0.672852
10.6583 -24.6126 477.997 0.467473 0.530948 -0.706797
10.8449 -24.6418 478.153 0.558502 0.53912 -0.630417
11.0308 -24.6709 478.313 0.63352 0.516497 -0.576093
11.2086 -24.701 478.53 0.660927 0.502739 -0.557161
11.3897 -24.7349 478.732 0.633906 0.525219 -0.567722
11.5828 -24.7592 478.84 0.588561 0.479824 -0.650665
11.7689 -24.7904 479.006 0.593775 0.463224 -0.657917
11.9541 -24.8203 479.176 0.637661 0.495724 -0.589615
12.139 -24.8496 479.349 0.633447 0.489536 -0.599249
12.3281 -24.8781 479.493 0.543836 0.476889 -0.690521
12.5216 -24.9042 479.604 0.563624 0.464159 -0.683289
12.7054 -24.9328 479.784 0.699646 0.427682 -0.57235
12.882 -24.9688 480.027 0.800232 0.371584 -0.470696
13.0561 -25.0041 480.287 0.797959 0.357796 -0.485019
13.2353 -25.0371 480.51 0.761167 0.366835 -0.534843
13.4105 -25.072 480.764 0.778299 0.365749 -0.510371
13.5884 -25.1058 480.999 0.785474 0.368775 -0.497027
13.7615 -25.142 481.272 0.802146 0.375201 -0.464528
13.9298 -25.1805 481.585 0.773312 0.435148 -0.461123
14.1105 -25.2132 481.802 0.81281 0.413117 -0.4107
14.2676 -25.2574 482.204 0.843461 0.380726 -0.378974
14.4427 -25.2931 482.469 0.834539 0.379796 -0.399125
14.6127 -25.3314 482.775 0.842464 0.354336 -0.405833
14.7818 -25.3702 483.09 0.888511 0.324546 -0.324372
14.9253 -25.4217 483.607 0.906515 0.266386 -0.32752
15.094 -25.4609 483.931 0.904302 0.256002 -0.341615
15.2409 -25.511 484.428 0.922837 0.280624 -0.26386
15.3933 -25.5588 484.884 0.925011 0.278429 -0.258519
-4.03721 -23.17 479.805 -0.60373 0.383893 -0.698667
-3.78941 -23.1769 479.584 -0.614728 0.38748 -0.687
-3.54345 -23.1844 479.372 -0.559032 0.429997 -0.708933
-3.30626 -23.1947 479.212 -0.513042 0.445862 -0.733481
-3.05718 -23.2009 478.98 -0.575663 0.375099 -0.726576
-2.82315 -23.2122 478.836 -0.559252 0.416293 -0.716894
-2.57825 -23.2196 478.626 -0.511018 0.479472 -0.71342
-2.33825 -23.2287 478.444 -0.440505 0.484851 -0.755563
-2.11377 -23.2437 478.354 -0.40793 0.49752 -0.76555
-1.87779 -23.2534 478.196 -0.418855 0.504697 -0.754878
-1.6473 -23.2655 478.069 -0.442956 0.481101 -0.756526
-1.41639 -23.2778 477.938 -0.42361 0.492719 -0.76012
-1.17921 -23.2872 477.769 -0.363375 0.50113 -0.785383
-0.954886 -23.3013 477.678 -0.338365 0.494946 -0.800336
-0.730191 -23.3153 477.583 -0.350592 0.501315 -0.791055
-0.502334 -23.3282 477.468 -0.363776 0.515181 -0.776051
-0.27528 -23.3411 477.357 -0.323694 0.556031 -0.76554
-0.0482926 -23.352 477.249 -0.268486 0.561419 -0.782767
0.173158 -23.3692 477.168 -0.267471 0.543725 -0.795501
0.396019 -23.3834 477.082 -0.262554 0.537604 -0.801279
0.617469 -23.3989 477.002 -0.23807 0.532461 -0.812286
0.838151 -23.4115 476.93 -0.234194 0.525619 -0.817849
1.05676 -23.4291 476.866 -0.232454 0.527257 -0.817291
1.27637 -23.4445 476.797 -0.22337 0.559378 -0.798249
1.50035 -23.4573 476.701 -0.159846 0.552471 -0.818062
1.71286 -23.4761 476.675 -0.175268 0.505303 -0.844955
1.93319 -23.4911 476.6 -0.210455 0.507006 -0.835855
2.1463 -23.5088 476.57 -0.110904 0.55751 -0.822729
2.36376 -23.5248 476.513 -0.059732 0.53081 -0.845383
2.57558 -23.5429 476.49 -0.0556578 0.514465 -0.855703
2.78554 -23.5616 476.48 -0.0795654 0.538498 -0.838862
