16.0506 -27.0971 486.357 0.959867 0.203358 -0.193133
16.0846 -27.2511 486.504 0.972916 0.181226 -0.143495
16.1332 -27.4114 486.648 0.978208 0.200363 -0.0544336
16.177 -27.5695 486.793 0.989507 0.144454 0.00292279
16.1919 -27.7152 486.945 0.984842 0.149062 -0.0886906
16.2569 -27.8823 487.085 0.979678 0.181021 -0.0863801
16.2475 -28.0177 487.242 0.990837 0.115327 0.0703
16.2495 -28.1578 487.397 0.993799 0.0624964 0.091967
16.2359 -28.2913 487.556 0.996829 0.0497143 0.0621303
16.2548 -28.4386 487.707 0.991547 0.114498 -0.0610253
16.3186 -28.6051 487.847 0.990802 0.109782 -0.0791188
16.3108 -28.741 488.004 0.997643 0.0675869 -0.011862
16.3342 -28.8902 488.154 0.995703 0.0922084 0.00852007
16.3359 -29.0301 488.309 0.995269 0.0894472 0.0379231
16.3595 -29.1793 488.458 0.997598 0.0543551 0.0429504
16.3423 -29.3112 488.618 0.995201 0.0190741 0.0959784
16.3148 -29.4387 488.78 0.992235 0.0210339 0.122587
16.2975 -29.5704 488.94 0.992962 0.025329 0.115695
16.2802 -29.7022 489.1 0.992794 0.0279613 0.116522
16.2724 -29.8382 489.257 0.993426 0.0258758 0.111516
16.2576 -29.9709 489.416 0.993491 0.0107174 0.113406
16.2404 -30.1028 489.576 0.994686 -0.0217499 0.100632
16.223 -30.2345 489.735 0.993537 -0.0615685 0.0953596
16.1886 -30.3592 489.9 0.976513 -0.125603 0.17506
16.1391 -30.4774 490.067 0.969198 -0.161747 0.185724
16.1044 -30.6019 490.232 0.98586 -0.120679 0.116265
16.0757 -30.7289 490.394 0.97302 -0.143222 0.180888
15.9901 -30.8319 490.571 0.956797 -0.123674 0.263143
15.9388 -30.9495 490.74 0.959918 -0.0845174 0.267233
15.8564 -31.054 490.916 0.968639 -0.0779941 0.235912
15.8366 -31.1848 491.077 0.955452 -0.112461 0.272881
15.7542 -31.2894 491.253 0.941558 -0.160068 0.296389
15.6828 -31.3986 491.427 0.947509 -0.171409 0.2699
15.6327 -31.5168 491.595 0.953551 -0.187096 0.236086
15.5771 -31.6308 491.765 0.946599 -0.236913 0.218684
15.4769 -31.73 491.946 0.917292 -0.278152 0.284969
15.3903 -31.8329 492.123 0.92192 -0.218604 0.319807
15.338 -31.9503 492.292 0.922822 -0.262781 0.281683
15.2272 -32.0419 492.477 0.898365 -0.30395 0.317103
15.1073 -32.1325 492.663 0.880523 -0.222667 0.418448
15.0142 -32.2329 492.843 0.879045 -0.212773 0.426623
14.8886 -32.32 493.031 0.873312 -0.22465 0.432272
14.7249 -32.3911 493.229 0.872855 -0.15119 0.463968
14.6589 -32.503 493.402 0.869149 -0.176782 0.461876
14.5178 -32.5846 493.594 0.84654 -0.204625 0.491426
14.3825 -32.667 493.785 0.81832 -0.148905 0.55514
14.2226 -32.7401 493.982 0.850791 -0.112078 0.513413
14.1366 -32.8434 494.161 0.835269 -0.161401 0.525619
13.9263 -32.8969 494.371 0.792616 -0.166633 0.58651
13.8032 -32.985 494.56 0.788748 -0.119028 0.603083
13.5692 -33.0277 494.777 0.736616 -0.157388 0.657743
13.3766 -33.0877 494.984 0.747021 -0.164229 0.644196
13.2012 -33.1548 495.186 0.736446 -0.194951 0.647797
12.9876 -33.2066 495.398 0.69717 -0.237709 0.67635
12.7823 -33.2629 495.608 0.706706 -0.285611 0.647297
12.5631 -33.3121 495.822 0.717883 -0.332984 0.611364
12.3799 -33.3757 496.027 0.684626 -0.41159 0.601565
12.1435 -33.4193 496.246 0.639015 -0.504448 0.580683
11.9644 -33.4848 496.45 0.667069 -0.559521 0.49189
11.7881 -33.5501 496.656 0.692966 -0.587188 0.418339
11.6216 -33.6243 496.854 0.643878 -0.545902 0.536109
12.834 -21.5956 482.893 0.736557 0.418396 -0.53144
13.0656 -21.8381 482.996 0.753884 0.408389 -0.514663
13.2334 -22.0525 483.114 0.767166 0.399075 -0.50219
13.4385 -22.2831 483.223 0.747617 0.391437 -0.536513
13.6163 -22.5016 483.338 0.793333 0.390474 -0.467068
13.7615 -22.7057 483.46 0.819657 0.415319 -0.394553
13.9614 -22.9336 483.57 0.838739 0.400562 -0.368872
14.0662 -23.1198 483.702 0.866149 0.369594 -0.336431
14.2206 -23.3276 483.822 0.823682 0.375395 -0.425001
14.4005 -23.5465 483.935 0.836485 0.352072 -0.419925
14.5187 -23.7382 484.064 0.878952 0.32988 -0.344416
14.6254 -23.9249 484.195 0.882142 0.323314 -0.342481
14.7476 -24.1182 484.322 0.8766 0.323496 -0.356262
14.8735 -24.3143 484.447 0.89139 0.308298 -0.332229
14.9866 -24.5023 484.578 0.895496 0.284944 -0.341899
15.1235 -24.7015 484.701 0.908215 0.261059 -0.327099
15.1721 -24.8627 484.846 0.925622 0.245534 -0.287987
15.2777 -25.0484 484.976 0.914819 0.275251 -0.295538
15.374 -25.2301 485.109 0.94254 0.277829 -0.185552
15.4372 -25.3972 485.25 0.944644 0.249979 -0.212506
15.5284 -25.5764 485.384 0.922518 0.260367 -0.284901
15.6154 -25.7538 485.519 0.93615 0.27086 -0.224185
15.6887 -25.9252 485.657 0.95181 0.244082 -0.185695
15.7721 -26.0995 485.794 0.960795 0.216589 -0.173094
15.7989 -26.252 485.942 0.964425 0.22711 -0.135297
15.878 -26.4257 486.079 0.969203 0.221354 -0.107929
15.9331 -26.589 486.221 0.984812 0.163 -0.0598019
15.9415 -26.7321 486.375 0.966925 0.216724 -0.134483
16.0376 -26.9125 486.508 0.963328 0.224423 -0.14708
16.0625 -27.0632 486.657 0.987764 0.135237 -0.0776676
16.0856 -27.2125 486.807 0.98085 0.145482 -0.129491
16.1404 -27.3754 486.949 0.984506 0.163379 -0.0636823
16.1674 -27.5264 487.098 0.985342 0.168747 -0.0250139
16.1797 -27.6711 487.251 0.982906 0.183947 -0.00768997
16.2302 -27.8321 487.394 0.992184 0.120841 0.0311248
16.2386 -27.975 487.547 0.99926 0.0327299 0.0201889
16.2476 -28.1181 487.701 0.999371 0.034938 0.00605859
16.2493 -28.2582 487.856 0.989958 0.10741 -0.0919078
16.2859 -28.4131 488.002 0.991425 0.118628 -0.0548042
16.2982 -28.5576 488.155 0.998621 0.0483556 0.0204597
16.285 -28.6912 488.313 0.998718 0.0504335 -0.00445664
16.3046 -28.8389 488.464 0.996143 0.0877269 -0.00167063
16.3117 -28.9811 488.618 0.994343 0.0770277 0.0731325
16.2955 -29.1134 488.777 0.987405 0.0510932 0.149735
16.2866 -29.2489 488.935 0.991333 0.0296667 0.127979
16.2737 -29.3826 489.093 0.993818 0.01386 0.110157
16.258 -29.5151 489.253 0.994576 0.0194493 0.102173
16.2439 -29.6483 489.412 0.995262 0.0241024 0.0941947
16.2337 -29.7831 489.57 0.995916 0.0340077 0.0836399
16.2415 -29.9257 489.723 0.995668 0.0241394 0.0897957
16.2243 -30.0575 489.883 0.992653 -0.0422188 0.113396
16.1976 -30.1854 490.045 0.981027 -0.130809 0.143094
16.1465 -30.3029 490.213 0.972279 -0.159796 0.170699
16.086 -30.4167 490.384 0.978581 -0.0512208 0.199387
16.0494 -30.5401 490.549 0.94487 -0.0556218 0.322687
15.9392 -30.633 490.732 0.940219 -0.0771255 0.331723
15.9058 -30.7581 490.896 0.957018 -0.0185415 0.289436
15.8594 -30.8778 491.063 0.963531 -0.0290583 0.266016
15.8081 -30.9954 491.232 0.955027 -0.0378574 0.294091
15.734 -31.1034 491.406 0.939276 -0.0337339 0.3415
15.695 -31.2263 491.572 0.950933 -0.05141 0.305096
15.6115 -31.3305 491.749 0.9592 -0.0284961 0.281289
15.5884 -31.4599 491.91 0.9384 -0.0611555 0.340097
15.4866 -31.5566 492.092 0.892423 -0.159241 0.422165
15.3619 -31.6437 492.279 0.934741 -0.0548092 0.351077
15.3385 -31.7731 492.441 0.917101 -0.0453203 0.396071
15.1994 -31.8542 492.632 0.844188 -0.155455 0.513011
15.0468 -31.9298 492.827 0.870483 -0.131983 0.474173
14.9531 -32.0301 493.007 0.872965 -0.0856717 0.480201
14.8233 -32.1153 493.196 0.829287 -0.133741 0.542583
14.6886 -32.1985 493.387 0.88181 -0.123455 0.45516
14.6208 -32.3089 493.561 0.862408 -0.111426 0.493798
14.4247 -32.3712 493.766 0.792202 -0.156826 0.589764
14.2526 -32.4356 493.968 0.820624 -0.127076 0.55716
14.1453 -32.5305 494.152 0.862594 -0.0783962 0.499786
14.0338 -32.6232 494.337 0.805597 -0.140409 0.575585
13.829 -32.6803 494.546 0.761791 -0.183635 0.621251
13.6421 -32.741 494.751 0.775012 -0.176878 0.606688
13.4937 -32.8197 494.946 0.748245 -0.221505 0.625352
13.3078 -32.8816 495.151 0.756993 -0.266678 0.596527
13.1277 -32.9469 495.355 0.728566 -0.332365 0.598936
12.9063 -32.9952 495.569 0.715411 -0.394566 0.576632
12.7467 -33.0692 495.768 0.716366 -0.451489 0.531957
12.5633 -33.1335 495.972 0.718145 -0.500582 0.483409
12.4186 -33.2138 496.167 0.688333 -0.554982 0.467111
12.2231 -33.2725 496.376 0.667731 -0.553631 0.497622
12.8502 -21.4217 483.037 0.742405 0.428018 -0.515398
13.0225 -21.6382 483.154 0.761509 0.427567 -0.487125
13.2457 -21.8771 483.258 0.765679 0.444294 -0.465122
13.4469 -22.1061 483.368 0.788866 0.4312 -0.437901
13.5991 -22.3135 483.489 0.832723 0.388876 -0.394143
13.7409 -22.5162 483.612 0.81163 0.377481 -0.44583
13.9083 -22.73 483.73 0.83133 0.382727 -0.403002
14.0522 -22.9335 483.852 0.839229 0.372363 -0.396283
14.243 -23.1571 483.964 0.817396 0.385171 -0.428377
14.3633 -23.3502 484.092 0.859636 0.38904 -0.33117
14.4987 -23.5496 484.216 0.881551 0.369753 -0.293515
14.6334 -23.7485 484.34 0.880592 0.34176 -0.328264
14.76 -23.9432 484.467 0.879579 0.331899 -0.340858
14.8741 -24.1337 484.595 0.883278 0.336208 -0.326777
15.0028 -24.3297 484.721 0.896203 0.320125 -0.307149
15.0712 -24.498 484.862 0.917677 0.295948 -0.265109
15.2062 -24.6981 484.985 0.934379 0.262369 -0.241035
15.2555 -24.8579 485.13 0.941843 0.24336 -0.231747
15.3183 -25.0266 485.27 0.928707 0.280471 -0.242567
15.4518 -25.2252 485.393 0.932109 0.281661 -0.227685
15.5103 -25.3895 485.536 0.94074 0.250811 -0.228259
15.5921 -25.5646 485.672 0.936147 0.250007 -0.247234
15.681 -25.7429 485.806 0.947239 0.241958 -0.210226
15.7334 -25.9052 485.949 0.96947 0.202313 -0.138551
15.7887 -26.0687 486.092 0.968929 0.191418 -0.156638
15.8488 -26.2343 486.233 0.966616 0.183454 -0.178882
15.8842 -26.3891 486.38 0.985318 0.152102 -0.0775487
15.9272 -26.5473 486.526 0.96661 0.216332 -0.13735
16.0071 -26.7213 486.662 0.955644 0.243169 -0.166174
16.0744 -26.8897 486.801 0.98329 0.155614 -0.094472
16.1142 -27.0463 486.947 0.990686 0.115003 -0.0729139
16.1108 -27.1843 487.104 0.988516 0.147232 -0.0340416
16.1431 -27.3376 487.251 0.991142 0.130195 -0.0262148
16.1659 -27.4868 487.401 0.985087 0.145576 -0.0917184
16.2265 -27.6522 487.542 0.986192 0.158189 -0.0490079
16.2346 -27.795 487.696 0.990767 0.109859 0.0794474
16.2219 -27.929 487.854 0.990107 0.119004 0.0743402
16.2457 -28.0785 488.004 0.989271 0.146072 -0.00249671
16.273 -28.2295 488.153 0.986836 0.160113 -0.0227721
16.3086 -28.384 488.299 0.995536 0.0875983 0.0351484
16.3023 -28.5206 488.456 0.999872 0.0129979 0.00928953
16.3036 -28.6604 488.612 0.999697 0.024488 0.0024788
16.2879 -28.793 488.771 0.996645 0.0282263 0.0768246
16.2796 -28.9287 488.929 0.995111 0.0377411 0.0912659
16.2755 -29.0662 489.085 0.99417 0.0393712 0.100376
16.2589 -29.1984 489.245 0.991729 0.0324268 0.124182
16.2417 -29.3303 489.404 0.992852 0.0361004 0.113761
16.2353 -29.4668 489.562 0.994651 0.0285137 0.0992751
16.2182 -29.5988 489.721 0.996055 0.037056 0.0806316
16.207 -29.7334 489.88 0.994481 0.0711529 0.0771075
16.2187 -29.8775 490.032 0.992886 0.0405581 0.111947
16.2013 -30.0092 490.192 0.980452 -0.0636173 0.186192
16.1391 -30.1222 490.363 0.94112 -0.169424 0.292556
16.0185 -30.2104 490.549 0.956216 -0.106387 0.272639
15.9908 -30.3379 490.711 0.947385 -0.0422844 0.31729
15.9157 -30.4454 490.886 0.935916 -0.103351 0.336718
15.8357 -30.551 491.062 0.973029 -0.0742993 0.218391
15.8088 -30.6788 491.224 0.962591 -0.0566499 0.26497
15.7198 -30.7806 491.403 0.940774 -0.0482349 0.335586
15.6651 -30.8969 491.572 0.95399 -0.0192234 0.299221
15.6106 -31.0133 491.741 0.948113 -0.0367083 0.315806
15.5419 -31.1237 491.915 0.944778 0.0127389 0.327464
15.4875 -31.2401 492.084 0.9167 0.0699247 0.393409
15.405 -31.3449 492.261 0.856735 -0.00780333 0.515698
15.2667 -31.4262 492.452 0.905791 -0.0077105 0.423654
15.2182 -31.5452 492.62 0.912268 -0.0337018 0.408205
15.0971 -31.6346 492.807 0.848058 -0.114064 0.517482
15.0034 -31.7341 492.987 0.845429 -0.113525 0.521882
14.832 -31.8047 493.186 0.864364 -0.0878972 0.495126
14.7652 -31.9135 493.36 0.860214 -0.0885551 0.502185
14.6236 -31.9938 493.553 0.858778 -0.111838 0.499993
14.4852 -32.0721 493.746 0.836345 -0.131636 0.532165
14.3509 -32.162 493.934 0.797204 -0.181881 0.575661
14.2176 -32.2434 494.126 0.830979 -0.208599 0.515713
14.0706 -32.3218 494.32 0.861785 -0.207733 0.462789
13.9471 -32.4101 494.509 0.801697 -0.236856 0.548799
13.76 -32.4721 494.714 0.762651 -0.298703 0.573706
13.6261 -32.5562 494.905 0.771342 -0.377133 0.512643
13.4261 -32.6134 495.113 0.759688 -0.424247 0.492838
13.2844 -32.6941 495.307 0.753155 -0.461335 0.468964
13.1212 -32.7665 495.506 0.716316 -0.53449 0.448567
12.9787 -32.8474 495.7 0.70312 -0.570104 0.424975
12.7949 -32.9113 495.905 0.717997 -0.553295 0.422308
12.6346 -32.985 496.104 0.740531 -0.509764 0.437898
12.4533 -33.0502 496.308 0.70222 -0.48839 0.518036
12.6118 -20.9946 483.083 0.723468 0.46259 -0.512449
12.8441 -21.2379 483.186 0.751696 0.423664 -0.505432
13.0231 -21.4575 483.301 0.772489 0.408851 -0.485903
13.2064 -21.679 483.415 0.765647 0.434382 -0.474444
13.3891 -21.9 483.529 0.790551 0.457336 -0.407275
13.6011 -22.1338 483.636 0.819059 0.433383 -0.375928
13.7634 -22.3456 483.754 0.828495 0.370475 -0.419934
13.9083 -22.5496 483.877 0.820386 0.35202 -0.450609
14.0737 -22.7625 483.994 0.831737 0.364603 -0.418662
14.1793 -22.9492 484.126 0.853916 0.389736 -0.344868
14.3308 -23.156 484.246 0.861482 0.378672 -0.338314
14.4701 -23.357 484.37 0.857331 0.358526 -0.369381
14.6089 -23.5579 484.493 0.873038 0.345473 -0.34417
14.7175 -23.7448 484.624 0.887341 0.343768 -0.307326
14.8431 -23.9404 484.75 0.885532 0.364074 -0.28859
14.9577 -24.1299 484.88 0.900858 0.348475 -0.258882
15.086 -24.3259 485.005 0.913578 0.317417 -0.25421
15.1567 -24.4979 485.143 0.931264 0.302322 -0.203345
15.2503 -24.6778 485.277 0.949434 0.262451 -0.17232
15.3339 -24.8543 485.413 0.930604 0.245311 -0.27166
15.3988 -25.0221 485.554 0.921905 0.27682 -0.271037
15.5156 -25.2117 485.682 0.936798 0.27054 -0.221852
15.5903 -25.3847 485.819 0.942278 0.245096 -0.228124
15.6583 -25.554 485.959 0.951306 0.229299 -0.206006
15.7336 -25.7276 486.095 0.963966 0.220794 -0.148391
15.7891 -25.89 486.239 0.96345 0.204865 -0.17261
15.8599 -26.0602 486.378 0.976116 0.143197 -0.163376
15.884 -26.2102 486.528 0.988941 0.104418 -0.105323
15.9093 -26.3608 486.677 0.968255 0.194057 -0.157557
15.9846 -26.5328 486.815 0.948278 0.24731 -0.199012
16.0564 -26.7033 486.953 0.976803 0.201794 -0.0716628
16.0508 -26.8404 487.11 0.98621 0.158191 0.0486294
16.084 -26.9942 487.257 0.985316 0.168898 -0.0250262
16.1415 -27.1584 487.399 0.986434 0.158408 -0.0430684
16.1529 -27.3028 487.552 0.988742 0.146136 -0.0321541
16.1668 -27.4482 487.704 0.987469 0.156643 0.019191
16.1665 -27.5875 487.86 0.985663 0.131611 0.105577
16.1799 -27.7326 488.012 0.986988 0.149345 0.0595833
16.2063 -27.8833 488.161 0.987388 0.158157 0.007188
16.2199 -28.0286 488.313 0.983478 0.177019 -0.0378743
16.2766 -28.1921 488.455 0.986729 0.162333 -0.00384187
16.2917 -28.3379 488.607 0.995227 0.0705351 0.0674394
16.2788 -28.4718 488.765 0.995789 0.032819 0.0855988
16.2698 -28.6072 488.923 0.99414 0.0303523 0.103749
16.2529 -28.7393 489.083 0.994388 0.0350456 0.0998227
16.2375 -28.8721 489.242 0.992804 0.037347 0.113773
16.221 -29.0043 489.402 0.992106 0.0349552 0.120434
16.2128 -29.1402 489.559 0.993934 0.0466153 0.0996078
16.2067 -29.2768 489.716 0.992002 0.0550488 0.113583
16.1938 -29.4106 489.875 0.989243 0.0574858 0.134515
16.1795 -29.5438 490.034 0.990671 0.0959222 0.0968011
16.186 -29.6858 490.188 0.985653 0.112903 0.12546
16.1686 -29.8173 490.348 0.967282 0.0467577 0.249357
16.1197 -29.9362 490.516 0.919498 -0.0751973 0.385835
16.0209 -30.0337 490.696 0.924195 -0.123401 0.361436
15.9362 -30.1371 490.873 0.964842 -0.072716 0.252571
15.9114 -30.2663 491.036 0.952469 -0.0475867 0.300896
15.8529 -30.3802 491.205 0.955672 -0.0561872 0.289022
15.7854 -30.4913 491.378 0.936581 -0.0360335 0.348595
15.694 -30.5922 491.557 0.929548 0.0157847 0.368364
15.6632 -30.7183 491.721 0.946618 0.0215164 0.321638
15.5832 -30.8241 491.897 0.921107 -0.0112945 0.389145
15.4856 -30.9224 492.078 0.905389 -0.0439013 0.422307
15.3541 -31.0065 492.267 0.911345 0.0058119 0.411603
15.3074 -31.1263 492.435 0.898755 0.010773 0.43832
15.2333 -31.2346 492.609 0.922168 -0.00137468 0.386786
15.2006 -31.3596 492.774 0.90032 -0.0409142 0.433301
15.0397 -31.4322 492.971 0.848163 -0.144342 0.509691
14.9032 -31.5118 493.163 0.848761 -0.139791 0.509964
14.7961 -31.6093 493.345 0.865148 -0.124457 0.485829
14.6724 -31.697 493.533 0.879006 -0.167088 0.446576
14.558 -31.7888 493.719 0.857421 -0.195043 0.476223
14.4546 -31.8843 493.902 0.84128 -0.230912 0.488803
14.2949 -31.9582 494.099 0.83758 -0.25813 0.481486
14.1788 -32.0514 494.285 0.850159 -0.281717 0.444821
14.0635 -32.1439 494.47 0.829761 -0.340018 0.442588
13.9051 -32.2149 494.669 0.803234 -0.375998 0.461996
13.781 -32.303 494.858 0.798394 -0.424975 0.426572
13.6424 -32.3852 495.05 0.768708 -0.492279 0.40835
13.5024 -32.4669 495.243 0.744381 -0.546102 0.384276
13.3572 -32.5464 495.437 0.766047 -0.525208 0.370579
13.2146 -32.6271 495.631 0.751054 -0.486205 0.44668
13.0021 -32.6791 495.844 0.737238 -0.442295 0.510739
12.6102 -20.8126 483.231 0.692355 0.429792 -0.579589
12.8471 -21.058 483.333 0.746242 0.408912 -0.525276
13.0123 -21.2717 483.451 0.785997 0.395753 -0.47496
13.2055 -21.4976 483.563 0.794677 0.405398 -0.451819
13.3548 -21.7041 483.685 0.774926 0.410407 -0.480683
13.5635 -21.9365 483.792 0.766786 0.411724 -0.492465
13.7503 -22.1592 483.905 0.81447 0.392226 -0.427547
13.9136 -22.3714 484.023 0.841956 0.365153 -0.397207
14.0256 -22.561 484.153 0.864711 0.337536 -0.371945
14.1677 -22.7638 484.276 0.844211 0.355313 -0.401324
14.3436 -22.9812 484.391 0.834814 0.347855 -0.426712
14.4668 -23.1754 484.518 0.854562 0.332497 -0.398961
14.6081 -23.3775 484.641 0.882212 0.332357 -0.333527
14.7034 -23.5594 484.774 0.896531 0.301128 -0.324892
14.8153 -23.7494 484.903 0.881093 0.310205 -0.356999
14.9407 -23.943 485.031 0.88981 0.33868 -0.305833
15.0398 -24.1272 485.162 0.920973 0.318992 -0.223725
15.1231 -24.3029 485.299 0.926524 0.297587 -0.230206
15.2396 -24.4936 485.427 0.924138 0.29109 -0.247457
15.3161 -24.6668 485.565 0.941226 0.253108 -0.223675
15.409 -24.8468 485.699 0.929997 0.24333 -0.275494
15.4803 -25.0179 485.837 0.927922 0.278158 -0.248172
15.5756 -25.1991 485.97 0.941327 0.298115 -0.158214
15.6499 -25.3711 486.108 0.959046 0.245934 -0.140528
15.6863 -25.5267 486.255 0.956376 0.227227 -0.183609
15.7865 -25.7085 486.388 0.951381 0.244984 -0.186699
15.8443 -25.8745 486.529 0.975625 0.201076 -0.0878875
15.8755 -26.0282 486.676 0.993137 0.10945 -0.0412196
15.886 -26.1718 486.83 0.969199 0.117525 -0.216429
15.9814 -26.3527 486.963 0.960682 0.181914 -0.209757
15.9877 -26.495 487.117 0.985331 0.164744 -0.0445134
16.0446 -26.659 487.259 0.989496 0.141066 -0.0315954
16.0652 -26.8075 487.409 0.986018 0.14418 -0.0835464
16.0942 -26.9595 487.558 0.987318 0.147112 -0.0596763
16.1233 -27.1115 487.707 0.993642 0.112577 0.00126263
16.1345 -27.2558 487.859 0.996141 0.0871274 0.0105856
16.1536 -27.4035 488.01 0.996468 0.0780673 0.0309492
16.1469 -27.5401 488.168 0.993285 0.114193 -0.0185964
16.1932 -27.6994 488.312 0.99211 0.103393 -0.0709092
16.2122 -27.8469 488.463 0.989668 0.108163 -0.0941162
16.2459 -28.0008 488.61 0.985779 0.160414 -0.0500679
16.2701 -28.1505 488.759 0.989462 0.118293 0.0834939
16.2589 -28.2851 488.918 0.993937 0.0367537 0.103627
16.2459 -28.4189 489.077 0.997171 -0.00615965 0.0749136
16.2337 -28.553 489.235 0.996411 -0.00294383 0.0845999
16.2225 -28.6876 489.394 0.996146 0.00150807 0.0876992
16.2105 -28.8218 489.552 0.995065 0.0157932 0.0979631
16.1931 -28.9538 489.712 0.993018 0.0339793 0.112963
16.1707 -29.0836 489.873 0.987596 0.0629899 0.143825
16.1533 -29.2155 490.033 0.982021 0.0870222 0.167516
16.1362 -29.3475 490.193 0.985195 0.0922453 0.144505
16.1189 -29.4795 490.353 0.983599 0.0915242 0.155424
16.0968 -29.6091 490.514 0.963955 0.0601609 0.259173
16.0389 -29.7242 490.684 0.929835 0.010334 0.367831
15.9761 -29.8369 490.856 0.926908 -0.0275687 0.374274
15.9281 -29.9559 491.024 0.939553 -0.0394506 0.340123
15.8168 -30.0482 491.208 0.94737 0.0141536 0.319829
15.7893 -30.1759 491.37 0.92443 -0.021483 0.380746
15.6454 -30.2544 491.563 0.911312 -0.052827 0.408314
15.606 -30.3772 491.728 0.951929 -0.0232973 0.305432
15.5378 -30.4879 491.901 0.946227 -0.0320762 0.32191
15.4681 -30.5979 492.075 0.926124 -0.0353676 0.375558
15.4153 -30.7151 492.244 0.896795 -0.104798 0.429855
15.3045 -30.8079 492.428 0.919009 -0.141555 0.367947
15.2448 -30.9222 492.599 0.947455 -0.145925 0.284666
15.1488 -31.0213 492.78 0.937658 -0.121687 0.32556
15.0524 -31.1206 492.96 0.919614 -0.0959562 0.380924
15.0047 -31.2399 493.129 0.848299 -0.186467 0.495599
14.8329 -31.3076 493.329 0.856066 -0.234907 0.460401
14.7488 -31.4117 493.507 0.902307 -0.238267 0.359264
14.6714 -31.5191 493.682 0.876451 -0.28813 0.385766
14.5393 -31.6054 493.872 0.863594 -0.290195 0.412301
14.412 -31.6906 494.062 0.851911 -0.286804 0.438167
14.2973 -31.7814 494.248 0.854741 -0.317846 0.410356
14.1947 -31.8783 494.431 0.865309 -0.340016 0.36828
14.0673 -31.9649 494.62 0.83475 -0.354677 0.421186
13.9404 -32.0517 494.809 0.830723 -0.378546 0.408169
13.8216 -32.142 494.996 0.832579 -0.39823 0.385
13.687 -32.2259 495.188 0.815855 -0.406315 0.411448
13.5477 -32.3078 495.381 0.785217 -0.381414 0.487809
13.3361 -32.3558 495.594 0.779631 -0.319185 0.538792
12.6281 -20.639 483.375 0.710414 0.442058 -0.547628
12.8475 -20.8769 483.48 0.763514 0.418164 -0.492123
13.0109 -21.0899 483.599 0.805811 0.416852 -0.420599
13.1814 -21.3059 483.716 0.788186 0.412297 -0.456918
13.3952 -21.5409 483.822 0.764518 0.393099 -0.510867
13.5846 -21.765 483.935 0.772907 0.385599 -0.503912
13.7377 -21.973 484.055 0.811427 0.387952 -0.437127
13.8959 -22.183 484.175 0.841012 0.377246 -0.387794
14.0557 -22.3938 484.293 0.858321 0.31972 -0.401328
14.172 -22.5853 484.422 0.815557 0.306639 -0.490754
14.339 -22.7989 484.539 0.831276 0.323921 -0.451726
14.4563 -22.9907 484.668 0.876098 0.326253 -0.354982
14.5702 -23.1808 484.797 0.874272 0.346514 -0.339965
14.726 -23.3893 484.916 0.892162 0.316851 -0.321952
14.8189 -23.5701 485.05 0.905235 0.280767 -0.318933
14.9041 -23.7474 485.186 0.902236 0.302334 -0.307514
15.023 -23.9402 485.313 0.911842 0.30988 -0.269293
15.1278 -24.1252 485.445 0.919582 0.286456 -0.268907
15.2053 -24.3002 485.581 0.917174 0.28414 -0.279385
15.3225 -24.49 485.711 0.926588 0.267744 -0.264097
15.3963 -24.6621 485.849 0.947344 0.24023 -0.21173
15.4565 -24.8282 485.99 0.953472 0.227906 -0.197358
15.5077 -24.9903 486.134 0.931257 0.276432 -0.237373
15.6354 -25.1856 486.259 0.946143 0.278902 -0.1644
15.6958 -25.3516 486.4 0.959686 0.234232 -0.155366
15.7532 -25.5163 486.542 0.959392 0.227793 -0.166368
15.7945 -25.6742 486.688 0.966539 0.215742 -0.138773
15.8928 -25.8562 486.82 0.976071 0.164034 -0.142755
15.9452 -26.0183 486.963 0.983328 0.102747 -0.150031
15.9418 -26.1567 487.12 0.98363 0.13694 -0.117127
16.0002 -26.3216 487.261 0.986702 0.123116 -0.106123
16.0191 -26.4693 487.412 0.987542 0.11663 -0.10563
16.0587 -26.626 487.558 0.987297 0.151324 -0.0484252
16.0923 -26.78 487.706 0.990835 0.102807 -0.0876148
16.1162 -26.9299 487.856 0.995547 0.0699506 -0.0631965
16.1318 -27.0761 488.008 0.996712 0.079977 0.0130117
16.124 -27.2123 488.165 0.995111 0.0910673 0.0382128
16.148 -27.3621 488.315 0.989243 0.129514 -0.0680037
16.205 -27.526 488.456 0.990704 0.105565 -0.0857962
16.1988 -27.6628 488.614 0.996003 0.0892628 -0.00319511
16.2064 -27.8055 488.767 0.992152 0.125024 -0.0017677
16.2163 -27.9492 488.921 0.990999 0.132929 0.0158482
16.2624 -28.1084 489.065 0.994981 0.0781498 0.0624979
16.2455 -28.2405 489.224 0.993729 0.0206357 0.109894
16.2282 -28.3725 489.384 0.992784 0.026539 0.116938
16.208 -28.5032 489.545 0.991029 0.0234145 0.131578
16.1788 -28.6302 489.708 0.989422 0.0270836 0.142512
16.1593 -28.7613 489.869 0.98641 0.0162387 0.163499
16.1198 -28.8838 490.034 0.987856 0.00923342 0.1551
16.1024 -29.0158 490.194 0.993372 0.0370472 0.108812
16.1048 -29.1562 490.349 0.993326 0.0372192 0.109168
16.0872 -29.288 490.509 0.98394 0.0274894 0.176369
16.0425 -29.4084 490.676 0.963352 -0.0110976 0.268011
15.975 -29.5192 490.849 0.955125 -0.0633634 0.289346
15.926 -29.6377 491.017 0.949684 -0.0708789 0.305084
15.8315 -29.7371 491.196 0.931296 -0.072699 0.356936
15.7837 -29.8562 491.364 0.954838 -0.0747757 0.287563
15.7287 -29.9724 491.534 0.941155 -0.139822 0.307697
15.6627 -30.0839 491.706 0.945248 -0.205296 0.253691
15.6303 -30.2096 491.87 0.953757 -0.256708 0.156361
15.535 -30.3088 492.05 0.938888 -0.251287 0.235255
15.4771 -30.4238 492.221 0.942906 -0.233782 0.23722
15.3739 -30.5198 492.403 0.933992 -0.242431 0.26246
15.3323 -30.6418 492.57 0.942176 -0.237669 0.236259
15.2593 -30.7505 492.744 0.927251 -0.254618 0.274546
15.1631 -30.8493 492.925 0.912876 -0.247532 0.324632
15.087 -30.9571 493.1 0.914086 -0.269123 0.303347
14.9501 -31.0391 493.292 0.87858 -0.291685 0.378176
14.8648 -31.1449 493.469 0.884439 -0.316554 0.342872
14.7854 -31.249 493.646 0.899754 -0.339924 0.273668
14.6557 -31.3325 493.836 0.866036 -0.321064 0.383275
14.5302 -31.4215 494.024 0.852055 -0.313476 0.419208
14.4157 -31.5118 494.211 0.869103 -0.310986 0.38464
14.3126 -31.6097 494.393 0.875474 -0.304752 0.375062
14.1864 -31.6943 494.583 0.860419 -0.299429 0.412336
14.0586 -31.7828 494.772 0.853863 -0.294316 0.429298
13.9402 -31.872 494.959 0.85696 -0.26452 0.442322
12.6324 -20.4595 483.521 0.715528 0.430692 -0.550022
12.8066 -20.6775 483.638 0.78531 0.403264 -0.469751
12.978 -20.8942 483.754 0.776652 0.377199 -0.504512
13.1992 -21.1327 483.859 0.737435 0.364434 -0.568663
13.3849 -21.3554 483.973 0.761834 0.388129 -0.518618
13.5588 -21.5727 484.088 0.803596 0.394498 -0.44565
13.7246 -21.7864 484.206 0.819527 0.369951 -0.437622
13.8822 -21.9964 484.325 0.806077 0.364803 -0.466003
14.0642 -22.2168 484.439 0.828479 0.356779 -0.43166
14.2144 -22.4234 484.56 0.851336 0.347923 -0.392653
14.3381 -22.6171 484.688 0.872906 0.34766 -0.342297
14.4406 -22.8035 484.819 0.889076 0.322058 -0.325303
14.5728 -23.0012 484.945 0.866851 0.342478 -0.362322
14.6924 -23.1944 485.072 0.883611 0.351034 -0.30985
14.8099 -23.3857 485.2 0.918294 0.301044 -0.257118
14.9031 -23.5654 485.336 0.913862 0.280442 -0.293614
15.001 -23.7496 485.467 0.902429 0.301178 -0.30808
15.1066 -23.9362 485.598 0.916878 0.298307 -0.265232
15.2102 -24.1225 485.728 0.915977 0.287335 -0.280044
15.3035 -24.3008 485.864 0.930351 0.259742 -0.258808
15.3682 -24.4703 486.003 0.946738 0.232343 -0.222942
15.4688 -24.6541 486.135 0.957145 0.196674 -0.212587
15.5198 -24.8162 486.278 0.94593 0.207106 -0.249645
15.5863 -24.985 486.418 0.935779 0.253128 -0.245448
15.6646 -25.1588 486.555 0.955816 0.24822 -0.157488
15.736 -25.3296 486.694 0.96127 0.22827 -0.154444
15.8147 -25.5035 486.831 0.954512 0.216564 -0.204956
15.8696 -25.6668 486.973 0.962849 0.221964 -0.153797
15.9073 -25.8231 487.12 0.987031 0.159467 -0.0184625
15.9297 -25.9725 487.27 0.98267 0.150047 -0.10884
16.0128 -26.1481 487.406 0.985857 0.115824 -0.121126
15.9976 -26.2812 487.565 0.995389 0.090804 -0.0308939
16.0269 -26.4335 487.714 0.976631 0.185292 -0.108898
16.1099 -26.6089 487.849 0.988632 0.131266 -0.0733261
16.0946 -26.7418 488.009 0.997151 0.0712162 0.0248526
16.0957 -26.8819 488.164 0.994511 0.0870101 0.0581121
16.0999 -27.0233 488.319 0.993062 0.117464 0.00546417
16.1455 -27.1824 488.463 0.983741 0.15954 -0.0824651
16.169 -27.332 488.613 0.993789 0.109476 -0.0199659
16.1719 -27.4728 488.768 0.998016 0.0608367 0.0162413
16.1922 -27.621 488.919 0.996544 0.0815484 -0.0158133
16.2117 -27.7689 489.069 0.993706 0.107587 -0.0312026
16.2193 -27.9116 489.223 0.993986 0.0946588 0.0550631
16.2023 -28.0437 489.383 0.98703 0.0544966 0.150999
16.1849 -28.1757 489.543 0.989989 0.0372148 0.136152
16.1717 -28.3095 489.702 0.989464 0.019675 0.143438
16.1513 -28.4404 489.863 0.990768 0.00822634 0.135322
16.1368 -28.5734 490.022 0.990521 0.00357967 0.137318
16.1229 -28.707 490.181 0.991918 -0.0115813 0.126352
16.1056 -28.839 490.341 0.996962 -0.000565691 0.0778914
16.088 -28.971 490.501 0.992189 -0.0130027 0.124062
16.0334 -29.0871 490.671 0.983439 -0.0327601 0.178255
16.0146 -29.2186 490.831 0.976833 -0.0419132 0.209856
15.9819 -29.3441 490.995 0.957408 -0.10766 0.267916
15.8886 -29.4438 491.174 0.939496 -0.119058 0.321204
15.8321 -29.5593 491.344 0.955457 -0.0993568 0.277904
15.7843 -29.6785 491.512 0.97017 -0.107231 0.217419
15.7317 -29.7957 491.681 0.969598 -0.121355 0.212492
15.6984 -29.921 491.846 0.972555 -0.182573 0.144235
15.6409 -30.0362 492.016 0.939311 -0.268126 0.214018
15.5427 -30.1341 492.197 0.935211 -0.241558 0.258901
15.4892 -30.251 492.366 0.940238 -0.23098 0.250201
15.4113 -30.3576 492.542 0.931607 -0.295413 0.211755
15.3377 -30.4661 492.717 0.932767 -0.289172 0.215235
15.2302 -30.5604 492.901 0.913494 -0.256705 0.315644
15.1451 -30.6651 493.078 0.925751 -0.221046 0.306796
15.0679 -30.7691 493.255 0.902182 -0.266761 0.338978
14.9701 -30.8684 493.436 0.890323 -0.334314 0.309128
14.8904 -30.9758 493.612 0.90744 -0.312369 0.281031
14.7724 -31.0658 493.798 0.873718 -0.297169 0.385107
14.6479 -31.1533 493.987 0.853911 -0.313625 0.415302
14.5324 -31.2447 494.173 0.862891 -0.299786 0.406875
14.4103 -31.3332 494.361 0.872531 -0.280553 0.399974
12.6359 -20.2794 483.668 0.73193 0.426158 -0.531665
12.8186 -20.5014 483.783 0.770299 0.435002 -0.466275
13.0732 -20.7549 483.88 0.749354 0.393444 -0.532607
13.2198 -20.9606 484.002 0.771663 0.363777 -0.52173
13.3919 -21.1774 484.119 0.799724 0.404118 -0.443994
13.5573 -21.3911 484.236 0.798914 0.408051 -0.44185
13.7528 -21.6178 484.347 0.810667 0.385352 -0.44082
13.8957 -21.8215 484.47 0.821742 0.385784 -0.419417
14.0519 -22.0309 484.589 0.845992 0.390104 -0.363479
14.1511 -22.2152 484.722 0.87228 0.375835 -0.31285
14.2988 -22.4202 484.844 0.872418 0.387535 -0.29783
14.4475 -22.6272 484.964 0.889828 0.364413 -0.274606
14.5376 -22.806 485.1 0.887819 0.348432 -0.30062
14.6713 -23.0056 485.224 0.87992 0.356791 -0.313753
14.7967 -23.2002 485.351 0.903095 0.326198 -0.279311
14.8929 -23.3825 485.484 0.918013 0.287928 -0.272672
14.9927 -23.5674 485.615 0.912873 0.291215 -0.286108
15.0897 -23.7492 485.749 0.908982 0.29899 -0.290443
15.195 -23.9351 485.88 0.913035 0.298668 -0.277783
15.294 -24.118 486.013 0.931237 0.271524 -0.243046
15.3854 -24.2982 486.146 0.938609 0.231291 -0.255964
15.4502 -24.4664 486.287 0.953116 0.220292 -0.207463
15.5124 -24.6334 486.428 0.95965 0.222074 -0.172496
15.589 -24.8067 486.565 0.952448 0.206453 -0.224097
15.6461 -24.9714 486.707 0.951616 0.219805 -0.214737
15.7222 -25.1444 486.845 0.949102 0.256441 -0.182877
15.7878 -25.3126 486.985 0.962401 0.248308 -0.110125
15.824 -25.4681 487.132 0.966917 0.24476 -0.0718557
15.902 -25.6417 487.269 0.974798 0.215131 -0.0590616
15.9392 -25.7975 487.415 0.974505 0.19442 -0.111987
15.991 -25.9597 487.558 0.986087 0.165866 -0.0110323
15.9799 -26.0946 487.717 0.990568 0.129119 0.045854
16.0239 -26.2533 487.862 0.971739 0.203214 -0.120111
16.0737 -26.4144 488.006 0.98319 0.182545 0.00385327
16.0665 -26.5509 488.163 0.991821 0.0882449 0.0922183
16.0792 -26.696 488.316 0.997507 0.0663329 0.0240596
16.084 -26.8377 488.471 0.992367 0.120239 -0.0273927
16.1182 -26.992 488.618 0.982774 0.171117 -0.0698207
16.165 -27.1517 488.762 0.991099 0.13138 -0.0214776
16.184 -27.2994 488.913 0.998673 0.0514824 0.00100925
16.1705 -27.4332 489.072 0.998128 0.056722 -0.0228733
16.1911 -27.5815 489.222 0.996091 0.0861652 0.0194726
16.1811 -27.7168 489.381 0.993894 0.072382 0.0832744
16.1884 -27.8594 489.534 0.993103 0.0456024 0.108014
16.1714 -27.9916 489.694 0.995169 0.00727549 0.0979107
16.1601 -28.1262 489.853 0.995324 -0.0128742 0.0957295
16.1365 -28.2557 490.015 0.993461 -0.015137 0.113162
16.1138 -28.3853 490.176 0.992992 0.0133064 0.117433
16.0964 -28.5175 490.336 0.991091 0.0323719 0.129189
16.079 -28.6495 490.496 0.991118 0.0271781 0.130178
16.0617 -28.7815 490.656 0.988749 -0.0189875 0.148371
16.0439 -28.9134 490.816 0.983856 -0.0972157 0.150256
15.9854 -29.028 490.987 0.98314 -0.133524 0.12493
15.9443 -29.15 491.153 0.949408 -0.185679 0.253275
15.8404 -29.2455 491.335 0.943568 -0.0986629 0.31614
15.8156 -29.3743 491.497 0.961459 -0.0150172 0.274538
15.7447 -29.4838 491.671 0.970053 -0.0513635 0.237401
15.7266 -29.6155 491.831 0.987866 -0.0466251 0.148141
15.7087 -29.7472 491.991 0.979627 -0.117613 0.162784
15.6483 -29.8613 492.163 0.92626 -0.248947 0.282963
15.5357 -29.9532 492.347 0.932752 -0.257875 0.251943
12.6093 -20.0861 483.822 0.767937 0.442525 -0.463081
12.7713 -20.2989 483.942 0.726703 0.439681 -0.527811
13.0552 -20.5655 484.032 0.763986 0.456978 -0.455518
13.1826 -20.7628 484.159 0.838852 0.436033 -0.325887
13.3595 -20.9819 484.274 0.808428 0.426923 -0.405193
13.5365 -21.2008 484.389 0.790291 0.41483 -0.450951
13.722 -21.4234 484.502 0.813259 0.365832 -0.452522
13.843 -21.6177 484.63 0.838718 0.363211 -0.405746
14.0147 -21.8338 484.746 0.852702 0.370887 -0.367888
14.1528 -22.0351 484.87 0.873749 0.31562 -0.370063
14.2652 -22.2251 484.999 0.859815 0.326256 -0.392779
14.3866 -22.4194 485.127 0.875003 0.35672 -0.327292
14.5352 -22.6244 485.248 0.88753 0.351881 -0.297439
14.6397 -22.8109 485.379 0.877876 0.35779 -0.318307
14.7776 -23.0117 485.503 0.892542 0.347831 -0.287025
14.8811 -23.1956 485.636 0.915964 0.296218 -0.270673
14.9751 -23.3801 485.767 0.913673 0.284259 -0.290513
15.0808 -23.5649 485.899 0.911395 0.28803 -0.293936
15.1759 -23.7461 486.033 0.912198 0.291113 -0.288355
15.2783 -23.9312 486.164 0.917164 0.301202 -0.260935
15.3764 -24.1146 486.296 0.947351 0.252196 -0.197288
15.421 -24.274 486.441 0.960272 0.211782 -0.18173
15.5039 -24.4505 486.577 0.945389 0.229467 -0.231482
15.5848 -24.6254 486.714 0.957819 0.202281 -0.204122
15.6319 -24.7858 486.858 0.966178 0.174618 -0.189761
15.6825 -24.9477 487.002 0.961268 0.196487 -0.193279
15.74 -25.1125 487.144 0.969204 0.22181 -0.106981
15.7929 -25.2754 487.287 0.963576 0.251513 -0.0908923
15.8508 -25.4403 487.429 0.963976 0.244347 -0.105093
15.9065 -25.6042 487.571 0.979865 0.19412 -0.0467021
15.9136 -25.7471 487.725 0.987112 0.1599 -0.00652112
15.9673 -25.9101 487.868 0.990745 0.13376 -0.023091
15.9756 -26.0534 488.022 0.985822 0.147162 -0.0806154
16.0142 -26.2098 488.168 0.985809 0.159414 -0.0526073
16.0641 -26.371 488.312 0.992261 0.120904 0.0282799
16.0622 -26.5098 488.468 0.99608 0.0749689 0.0469413
16.0597 -26.6484 488.624 0.994798 0.0980409 -0.0276522
16.0982 -26.8046 488.771 0.983717 0.15794 -0.0857674
16.1299 -26.9579 488.918 0.983257 0.175104 -0.0504481
16.1727 -27.1159 489.063 0.994642 0.0992338 0.0289864
16.1639 -27.2517 489.221 0.998174 0.0432963 0.0421224
16.1635 -27.3911 489.377 0.99717 0.0610909 0.0438257
16.1604 -27.5293 489.534 0.995748 0.0630744 0.0671313
16.1593 -27.6684 489.69 0.993741 0.0773178 0.0806253
16.1626 -27.8094 489.845 0.991895 0.0562037 0.113954
16.1454 -27.9415 490.005 0.992269 0.00502525 0.124007
16.1198 -28.0701 490.167 0.991141 -0.0476288 0.123978
16.0858 -28.1951 490.331 0.993803 -0.0551997 0.0964837
16.0685 -28.3274 490.491 0.997046 -0.0604258 0.0474033
16.0581 -28.4623 490.649 0.997463 -0.0702415 0.0115224
16.058 -28.6017 490.805 0.99715 -0.0737155 0.01606
16.0434 -28.735 490.964 0.991424 -0.0741016 0.107641
16.0255 -28.8668 491.125 0.973937 -0.108752 0.199046
15.9525 -28.9751 491.299 0.906759 -0.21043 0.365387
15.7884 -29.045 491.497 0.932229 -0.169435 0.319751
15.7627 -29.1736 491.659 0.98187 -0.0334736 0.186577
15.7418 -29.3043 491.82 0.977343 0.0154963 0.211092
15.7178 -29.4335 491.982 0.986554 0.044891 0.157148
15.6993 -29.5653 492.142 0.978177 -0.0127874 0.207381
15.6497 -29.6838 492.311 0.937946 -0.164898 0.305066
15.5684 -29.7917 492.486 0.917255 -0.258638 0.302902
12.5987 -19.8996 483.973 0.754212 0.478961 -0.449177
12.8449 -20.1499 484.072 0.754123 0.412606 -0.510935
12.9538 -20.3392 484.204 0.780226 0.397622 -0.48285
13.1684 -20.5752 484.31 0.797741 0.394515 -0.456034
13.3456 -20.7945 484.425 0.77236 0.387046 -0.503642
13.556 -21.0283 484.532 0.760192 0.39868 -0.512993
13.7573 -21.2579 484.641 0.82534 0.349654 -0.443345
13.8612 -21.4446 484.773 0.849517 0.335186 -0.407396
14.0207 -21.6556 484.892 0.823333 0.357027 -0.441196
14.1707 -21.8614 485.014 0.871503 0.32065 -0.371034
14.2745 -22.0486 485.145 0.889751 0.291225 -0.35147
14.3909 -22.2403 485.274 0.875726 0.314454 -0.366364
14.4967 -22.4272 485.405 0.88037 0.325617 -0.34485
14.6242 -22.6239 485.531 0.875878 0.30914 -0.3705
14.7433 -22.8163 485.659 0.873827 0.327755 -0.35917
14.8833 -23.0178 485.782 0.906049 0.296291 -0.302136
14.9635 -23.1953 485.917 0.912216 0.2691 -0.308945
15.0793 -23.3844 486.047 0.912784 0.275884 -0.301186
15.1595 -23.5597 486.184 0.921329 0.26709 -0.282515
15.2557 -23.7419 486.317 0.916096 0.287947 -0.279025
15.3503 -23.9234 486.45 0.939896 0.265504 -0.214718
15.4359 -24.1008 486.585 0.954849 0.212411 -0.207713
15.4953 -24.2668 486.727 0.941145 0.201353 -0.271482
15.5791 -24.443 486.863 0.954335 0.216354 -0.206
15.6417 -24.6105 487.004 0.969096 0.216449 -0.118329
15.6974 -24.7747 487.146 0.980489 0.13422 -0.14362
15.7058 -24.9183 487.3 0.97977 0.129037 -0.152969
15.7614 -25.0824 487.442 0.963609 0.212186 -0.162588
15.8366 -25.2549 487.58 0.965543 0.21137 -0.15182
15.8816 -25.4143 487.725 0.983373 0.157162 -0.0909872
15.9281 -25.5742 487.869 0.987831 0.110044 -0.10991
15.9553 -25.7258 488.019 0.989331 0.127273 -0.070894
15.9873 -25.8794 488.167 0.991031 0.111561 -0.0735628
16.0211 -26.0337 488.314 0.990733 0.0587599 -0.122459
16.0085 -26.168 488.473 0.995219 0.0871517 -0.0440881
16.0517 -26.3264 488.618 0.994899 0.0981766 0.0231757
16.0554 -26.4677 488.773 0.994042 0.108993 -0.00054577
16.0804 -26.6181 488.923 0.986359 0.163085 -0.022346
16.0992 -26.7659 489.074 0.982327 0.174898 -0.0666601
16.1566 -26.9303 489.215 0.992333 0.123564 -0.00257537
16.1404 -27.0629 489.375 0.990937 0.0864739 0.102791
16.1487 -27.2061 489.529 0.992607 0.0829586 0.088598
16.1344 -27.3395 489.688 0.994477 0.053966 0.0900204
16.1256 -27.4754 489.846 0.996345 0.0530758 0.0669277
16.1195 -27.6124 490.003 0.997485 0.0462532 0.0537073
16.1316 -27.7571 490.156 0.997824 0.00742377 0.0655159
16.1248 -27.8937 490.313 0.994789 -0.0487197 0.0895586
16.1076 -28.026 490.474 0.99724 -0.0630893 0.0391418
16.1174 -28.1713 490.626 0.998236 -0.0591529 0.00506958
16.1001 -28.3031 490.786 0.998207 -0.0538644 0.0261224
16.0824 -28.4354 490.946 0.992314 -0.0694463 0.102419
16.012 -28.5434 491.121 0.979003 -0.0051451 0.203781
15.9755 -28.6671 491.286 0.948401 0.00978628 0.316922
15.8804 -28.7663 491.466 0.901463 -0.111291 0.418306
15.8296 -28.8842 491.635 0.925255 -0.220402 0.308751
15.7348 -28.9835 491.815 0.971402 -0.103747 0.213576
15.6768 -29.0986 491.986 0.968471 0.0760733 0.237229
15.6594 -29.2306 492.146 0.982923 0.078221 0.166566
15.653 -29.3656 492.304 0.986808 0.023633 0.16016
15.6353 -29.4975 492.464 0.96059 -0.0925303 0.262115
15.5537 -29.6046 492.64 0.917731 -0.228848 0.324651
12.5755 -19.7075 484.126 0.696337 0.469459 -0.542884
12.8087 -19.9521 484.229 0.770262 0.447972 -0.453891
13.0134 -20.184 484.337 0.788596 0.395669 -0.470704
13.2017 -20.4084 484.45 0.768415 0.376951 -0.517153
13.364 -20.6213 484.569 0.776369 0.392923 -0.492812
13.5521 -20.8454 484.681 0.770988 0.415807 -0.482371
13.7176 -21.0593 484.798 0.843192 0.397085 -0.362424
13.8451 -21.2565 484.925 0.856125 0.379427 -0.350836
14.0157 -21.4725 485.041 0.837703 0.376929 -0.395194
14.1363 -21.6663 485.169 0.872292 0.357369 -0.333759
14.2782 -21.8704 485.291 0.895992 0.300157 -0.327268
14.3605 -22.0463 485.429 0.882214 0.284845 -0.374915
14.523 -22.2583 485.546 0.861035 0.310351 -0.402866
14.6467 -22.4531 485.673 0.880499 0.274442 -0.386527
14.7409 -22.6349 485.807 0.874782 0.303947 -0.377323
14.8764 -22.8348 485.931 0.893925 0.297466 -0.335279
14.9666 -23.0146 486.065 0.916607 0.265055 -0.299296
15.0653 -23.1982 486.198 0.915311 0.278666 -0.290778
15.1622 -23.3809 486.331 0.92973 0.273574 -0.246494
15.2424 -23.556 486.468 0.924757 0.27898 -0.258831
15.3389 -23.7375 486.601 0.926685 0.286608 -0.243126
15.4255 -23.9165 486.736 0.940081 0.275839 -0.200404
15.5162 -24.0962 486.87 0.960566 0.225443 -0.162753
15.5353 -24.2449 487.021 0.970312 0.180764 -0.160685
15.5868 -24.407 487.165 0.947068 0.234761 -0.218973
15.7155 -24.6031 487.289 0.976706 0.192859 -0.0940791
15.7045 -24.7382 487.448 0.989296 0.13659 -0.0513433
15.7667 -24.9061 487.588 0.965265 0.186083 -0.183402
15.8091 -25.0635 487.734 0.964087 0.183732 -0.191779
15.8853 -25.2365 487.872 0.973551 0.164409 -0.158644
15.9203 -25.3916 488.019 0.992581 0.111242 -0.0490779
15.9088 -25.5264 488.178 0.987339 0.132233 -0.0876185
15.9962 -25.7041 488.312 0.978326 0.168659 -0.120139
16.0239 -25.8559 488.461 0.995679 0.0911082 0.01798
16.0167 -25.9925 488.619 0.997685 0.0659522 0.0166117
16.0207 -26.134 488.774 0.993335 0.112223 0.0263061
16.0191 -26.2731 488.93 0.987585 0.138539 0.0740456
16.0265 -26.4159 489.084 0.983714 0.17538 -0.0393631
16.1088 -26.5912 489.219 0.983937 0.154774 -0.0889589
16.1013 -26.7277 489.377 0.992758 0.110826 0.0463537
16.1031 -26.8681 489.533 0.992051 0.0903987 0.0875381
16.1048 -27.0085 489.688 0.994747 0.085368 0.0564836
16.1223 -27.1557 489.839 0.995273 0.0628955 0.0740032
16.1163 -27.2927 489.997 0.997773 0.0505866 0.0434858
16.1383 -27.4418 490.147 0.99692 0.068007 0.0390651
16.1246 -27.5755 490.306 0.997355 0.0450603 0.0570306
16.1223 -27.714 490.462 0.997103 0.00823761 0.0756094
16.105 -27.8463 490.622 0.997616 0.0031518 0.0689341
16.0876 -27.9789 490.783 0.995953 0.0110156 0.0891916
16.0617 -28.1062 490.944 0.991505 0.00929027 0.129733
16.0434 -28.2387 491.105 0.964953 -0.091354 0.246006
15.9319 -28.3307 491.29 0.953661 -0.0568679 0.295461
15.9112 -28.463 491.45 0.958903 0.00504793 0.28369
15.8668 -28.5836 491.616 0.965868 -0.0751312 0.247902
15.8463 -28.7159 491.777 0.914886 -0.1889 0.356792
15.6499 -28.7694 491.985 0.909607 -0.124951 0.396235
15.6317 -28.9015 492.145 0.985342 0.0646785 0.157852
15.6572 -29.0514 492.295 0.996671 0.0477631 0.0660681
15.6403 -29.1831 492.454 0.996564 -0.0496601 0.0662818
15.6124 -29.3116 492.618 0.979357 -0.153984 0.13095
15.5738 -29.434 492.784 0.910922 -0.145976 0.385891
12.7816 -19.7583 484.383 0.744135 0.462913 -0.481637
13.0048 -19.9985 484.487 0.778551 0.447413 -0.440091
13.1619 -20.2093 484.607 0.800995 0.422596 -0.424052
13.361 -20.4385 484.717 0.800989 0.422232 -0.424425
13.5174 -20.6487 484.837 0.806877 0.419757 -0.415636
13.6984 -20.8697 484.951 0.835877 0.382861 -0.393352
13.8329 -21.07 485.076 0.838287 0.371918 -0.398688
13.9978 -21.2836 485.193 0.849291 0.374773 -0.37182
14.1165 -21.4767 485.322 0.851538 0.364728 -0.376639
14.3005 -21.6985 485.434 0.877132 0.316438 -0.361256
14.3834 -21.8756 485.571 0.882271 0.281255 -0.377483
14.5211 -22.0768 485.695 0.851452 0.310477 -0.42265
14.6352 -22.2675 485.824 0.901165 0.307023 -0.306003
14.7367 -22.4517 485.957 0.890267 0.329608 -0.314297
14.8704 -22.6518 486.08 0.896746 0.33047 -0.294341
14.9602 -22.8306 486.216 0.925348 0.286654 -0.248114
15.049 -23.0116 486.349 0.9251 0.272566 -0.264384
15.1306 -23.1869 486.486 0.928924 0.288253 -0.232404
15.2292 -23.3703 486.619 0.931194 0.282389 -0.23051
15.304 -23.5433 486.757 0.933319 0.283602 -0.220194
15.3901 -23.7211 486.892 0.933955 0.294699 -0.202186
15.468 -23.8953 487.029 0.947862 0.288097 -0.136229
15.5688 -24.0794 487.161 0.970712 0.208677 -0.119047
15.6082 -24.2363 487.308 0.957766 0.158306 -0.240048
15.6402 -24.3906 487.456 0.97303 0.200569 -0.113948
15.6911 -24.5528 487.599 0.978148 0.201763 -0.0501714
15.7489 -24.718 487.741 0.963425 0.209735 -0.166802
15.8291 -24.892 487.878 0.96565 0.213855 -0.147605
15.8633 -25.0476 488.025 0.978162 0.187228 -0.0902521
15.8932 -25.2005 488.174 0.990666 0.129327 -0.0430812
15.9449 -25.3628 488.317 0.989054 0.0979617 -0.110341
15.9443 -25.5024 488.473 0.983611 0.151978 -0.0970189
15.9842 -25.6595 488.619 0.989993 0.137644 0.0311125
15.9861 -25.8002 488.774 0.997234 0.041666 0.0615476
15.9717 -25.9337 488.934 0.998723 0.0329076 0.0383423
15.9781 -26.0763 489.088 0.99259 0.120796 -0.0131974
16.0463 -26.2455 489.227 0.977047 0.185569 -0.104606
16.0714 -26.3961 489.377 0.989264 0.145144 -0.0170513
16.07 -26.5352 489.533 0.993693 0.0993605 0.0519788
16.1018 -26.6887 489.681 0.997202 0.0685896 0.0297343
16.0872 -26.8221 489.84 0.998103 0.0578563 0.021071
16.1024 -26.9683 489.992 0.997046 0.0687517 0.0342444
16.0934 -27.1042 490.151 0.993335 0.0783001 0.0845848
16.0769 -27.2367 490.311 0.987712 0.130159 0.0865047
16.1058 -27.3888 490.459 0.982281 0.143544 0.120493
16.0986 -27.5251 490.616 0.987119 0.089523 0.132593
16.0898 -27.6613 490.775 0.990711 0.0419018 0.129368
16.0724 -27.7934 490.935 0.98597 0.0515241 0.158772
16.0573 -27.9264 491.094 0.983103 0.064623 0.171264
16.0391 -28.0584 491.255 0.935051 -0.0423036 0.351981
15.9056 -28.1416 491.445 0.935013 -0.0513712 0.350873
15.887 -28.2726 491.605 0.97688 0.062816 0.204354
15.8685 -28.4038 491.765 0.953431 0.0331808 0.299782
15.7563 -28.4957 491.951 0.870007 -0.0775859 0.486897
15.6384 -28.5856 492.137 0.90792 -0.0525731 0.415833
15.6206 -28.7183 492.298 0.990373 0.108799 0.0855854
15.6391 -28.8652 492.448 0.986114 0.156004 0.056931
15.669 -29.0176 492.596 0.983441 0.108237 0.14536
15.6505 -29.1491 492.756 0.908173 -0.0449281 0.416178
15.3946 -29.1842 492.977 0.786066 -0.11268 0.607786
12.7633 -19.5684 484.536 0.745098 0.446518 -0.495429
12.9643 -19.7988 484.645 0.773723 0.45457 -0.44127
13.1724 -20.0323 484.753 0.803666 0.434392 -0.406723
13.3159 -20.237 484.876 0.803955 0.426378 -0.414557
13.519 -20.468 484.985 0.799353 0.429267 -0.420433
13.6917 -20.6854 485.1 0.830039 0.388084 -0.400533
13.8272 -20.8862 485.225 0.848853 0.370649 -0.37692
13.967 -21.0889 485.348 0.842148 0.370883 -0.391449
14.1322 -21.3026 485.466 0.832828 0.355435 -0.424339
14.2637 -21.5013 485.591 0.863652 0.350788 -0.362014
14.3985 -21.7014 485.715 0.889365 0.350382 -0.293703
14.5162 -21.8936 485.844 0.893471 0.329911 -0.304743
14.6048 -22.0735 485.979 0.907749 0.311281 -0.28124
14.7192 -22.2644 486.108 0.896788 0.331845 -0.292662
14.8196 -22.449 486.24 0.894925 0.351214 -0.275244
14.9534 -22.6482 486.364 0.917854 0.325761 -0.226769
15.0321 -22.8231 486.502 0.937835 0.268182 -0.220329
15.1133 -22.9973 486.64 0.925954 0.261072 -0.272855
15.2133 -23.1825 486.771 0.933463 0.265293 -0.241385
15.2822 -23.3544 486.909 0.940185 0.252019 -0.229211
15.374 -23.5341 487.044 0.946641 0.243733 -0.210869
15.4196 -23.6949 487.188 0.931675 0.290773 -0.217792
15.5442 -23.8888 487.315 0.937261 0.300702 -0.176408
15.6076 -24.0566 487.455 0.984459 0.166778 -0.0550039
15.6107 -24.1985 487.61 0.983658 0.13914 -0.114264
15.6817 -24.369 487.749 0.96664 0.18645 -0.175626
15.7325 -24.5312 487.893 0.967631 0.182771 -0.174027
15.7703 -24.6876 488.04 0.969963 0.185772 -0.157037
15.836 -24.8562 488.18 0.975866 0.177976 -0.12653
15.8984 -25.0233 488.32 0.980617 0.156722 -0.117598
15.9255 -25.175 488.469 0.99389 0.108411 -0.0207043
15.9246 -25.3145 488.626 0.992768 0.118607 -0.0185559
15.9685 -25.4734 488.771 0.988784 0.136886 -0.0597311
16.0033 -25.6284 488.918 0.996592 0.0655329 0.0500982
15.9867 -25.761 489.078 0.997917 -0.00115386 0.0644985
15.9698 -25.8935 489.239 0.994737 0.0797119 -0.0643818
15.9989 -26.0459 489.387 0.982168 0.164885 -0.0903245
16.0356 -26.2016 489.534 0.991272 0.130319 -0.0199395
16.0659 -26.3545 489.682 0.994894 0.100651 -0.00737477
16.069 -26.4956 489.837 0.993618 0.104664 0.0420464
16.0832 -26.6414 489.99 0.994097 0.08302 0.0698494
16.0714 -26.7761 490.148 0.994604 0.0575374 0.0863275
16.0541 -26.9083 490.309 0.989496 0.0565731 0.133032
16.0419 -27.0429 490.468 0.991625 0.0831241 0.0988423
16.0254 -27.1755 490.628 0.988346 0.140223 0.0592416
16.0655 -27.3324 490.773 0.983567 0.139147 0.115043
16.0482 -27.4646 490.933 0.975818 0.0836023 0.201967
16.0026 -27.5848 491.101 0.973934 0.0830782 0.211069
15.9845 -27.7167 491.261 0.969965 0.0679339 0.233565
15.9134 -27.823 491.437 0.921544 0.0365529 0.386549
15.8642 -27.9446 491.604 0.915501 0.0571147 0.39824
15.7932 -28.0541 491.778 0.952692 0.0940624 0.289016
15.7496 -28.1748 491.945 0.929613 0.022283 0.367864
15.6611 -28.277 492.124 0.893644 -0.100659 0.437341
15.5798 -28.3822 492.301 0.953477 -0.0420454 0.298521
15.5622 -28.5143 492.461 0.987849 0.105883 0.113767
12.759 -19.3845 484.685 0.750406 0.394238 -0.530535
12.9252 -19.5996 484.803 0.763822 0.419419 -0.490575
13.1358 -19.8344 484.91 0.792897 0.420145 -0.441353
13.2971 -20.0471 485.029 0.79778 0.406303 -0.445493
