6.33374 -39.7174 465.238 0.03503 0.594693 -0.803189
6.53757 -39.7581 465.254 0.0991315 0.612622 -0.784135
6.75373 -39.7958 465.236 0.113356 0.62454 -0.772723
6.96006 -39.8359 465.244 0.130022 0.622457 -0.771778
7.17235 -39.8744 465.236 0.0952508 0.599223 -0.794896
7.37865 -39.9145 465.245 0.122299 0.601961 -0.789104
7.59171 -39.9528 465.234 0.19955 0.577859 -0.791365
7.78319 -39.9964 465.284 0.219518 0.550362 -0.805552
7.99253 -40.0356 465.283 0.21952 0.578658 -0.785472
8.19117 -40.0775 465.312 0.221485 0.566714 -0.793586
8.38644 -40.1202 465.352 0.203243 0.555068 -0.806593
8.58513 -40.162 465.381 0.190354 0.603451 -0.774347
8.80321 -40.1989 465.355 0.267541 0.597664 -0.75579
8.99011 -40.2436 465.417 0.286862 0.527723 -0.799511
9.1799 -40.2878 465.471 0.256767 0.550394 -0.794441
9.37872 -40.3295 465.499 0.330398 0.567977 -0.753816
9.56609 -40.374 465.56 0.370315 0.543047 -0.753636
9.75273 -40.4189 465.623 0.333001 0.559069 -0.75931
9.93948 -40.4637 465.686 0.307915 0.589387 -0.746868
10.1329 -40.5068 465.729 0.340658 0.609879 -0.715541
10.3221 -40.551 465.785 0.360621 0.623802 -0.693414
10.5132 -40.5946 465.835 0.360583 0.632351 -0.685647
10.7018 -40.6389 465.893 0.341291 0.605038 -0.71934
10.9003 -40.6807 465.921 0.348127 0.563715 -0.749021
11.0871 -40.7255 465.983 0.38437 0.528256 -0.757103
11.2731 -40.7703 466.047 0.558117 0.451547 -0.69614
11.4229 -40.8268 466.217 0.650144 0.445607 -0.615424
11.5929 -40.8743 466.329 0.541888 0.480694 -0.689414
11.7689 -40.9214 466.421 0.446629 0.521723 -0.726861
11.9546 -40.9668 466.488 0.435131 0.574623 -0.693158
12.1323 -41.014 466.577 0.504752 0.560977 -0.656149
12.3022 -41.0633 466.689 0.513069 0.559986 -0.65052
12.4824 -41.1099 466.771 0.477378 0.545051 -0.689224
12.6661 -41.1556 466.843 0.465753 0.511437 -0.722154
12.8504 -41.2011 466.912 0.47029 0.480484 -0.740245
13.0209 -41.2502 467.023 0.573863 0.490627 -0.655718
13.1788 -41.2988 467.171 0.707285 0.477684 -0.52112
13.3243 -41.3602 467.354 0.670615 0.491456 -0.55565
13.5008 -41.4064 467.448 0.598308 0.529504 -0.601376
13.6573 -41.4594 467.6 0.574178 0.558395 -0.59876
13.8377 -41.5061 467.682 0.624921 0.517072 -0.584902
13.9861 -41.5614 467.858 0.75684 0.42455 -0.496941
14.1333 -41.6176 468.038 0.666832 0.471741 -0.576884
14.3028 -41.6668 468.153 0.56399 0.536742 -0.627554
14.4693 -41.7173 468.277 0.664797 0.500847 -0.554254
14.6358 -41.766 468.401 0.737326 0.399752 -0.544562
14.7823 -41.824 468.584 0.784596 0.368182 -0.49885
14.9178 -41.8831 468.801 0.818386 0.407484 -0.405217
15.0453 -41.9444 469.041 0.737885 0.453417 -0.499939
15.2277 -41.9906 469.119 0.692943 0.419148 -0.586639
15.3685 -42.0486 469.321 0.77082 0.377783 -0.512949
15.5186 -42.1055 469.495 0.705792 0.401663 -0.583545
15.6884 -42.1539 469.611 0.669895 0.414408 -0.616042
15.8404 -42.2086 469.78 0.776579 0.41255 -0.476158
15.968 -42.2704 470.023 0.890297 0.36016 -0.278669
16.0662 -42.3405 470.355 0.92789 0.296062 -0.226643
16.1811 -42.4098 470.637 0.879612 0.322608 -0.349581
16.3126 -42.4668 470.869 0.764642 0.438635 -0.472147
16.4777 -42.517 471.001 0.750721 0.427024 -0.504051
16.6152 -42.5731 471.215 0.820796 0.362501 -0.44146
16.7461 -42.6389 471.452 0.877659 0.340162 -0.337646
16.8557 -42.7062 471.753 0.915155 0.310457 -0.257115
16.9577 -42.7759 472.078 0.932424 0.281409 -0.226703
17.0608 -42.8492 472.401 0.894987 0.338403 -0.290659
17.1958 -42.9058 472.625 0.833394 0.408379 -0.3724
17.3248 -42.9599 472.867 0.86521 0.326783 -0.380295
17.453 -43.0305 473.117 0.926813 0.239661 -0.289103
17.546 -43.1033 473.472 0.96808 0.202402 -0.147833
17.5917 -43.1897 473.973 0.967607 0.224614 -0.115263
17.6873 -43.262 474.323 0.96033 0.232587 -0.153849
17.7767 -43.3362 474.692 0.969499 0.19488 -0.148638
17.8558 -43.4136 475.094 0.983332 0.153826 -0.0969363
17.8863 -43.5051 475.646 0.993162 0.0991424 -0.0616444
17.9237 -43.5949 476.178 0.995133 0.0837863 -0.0518688
17.9402 -43.6925 476.775 0.99291 0.102814 -0.0596543
18.0018 -43.7741 477.237 0.989247 0.144839 -0.0203063
0.670592 -38.7239 467.03 -0.402005 0.453556 -0.795411
0.931523 -38.7524 466.898 -0.382574 0.509586 -0.770688
1.1986 -38.7793 466.748 -0.313537 0.581801 -0.750468
1.45795 -38.8079 466.619 -0.305715 0.550275 -0.777004
1.71588 -38.8368 466.493 -0.315955 0.492499 -0.810936
1.96501 -38.8677 466.39 -0.279787 0.489384 -0.825967
2.22236 -38.8966 466.265 -0.25785 0.49359 -0.830591
2.46469 -38.9289 466.18 -0.229026 0.475469 -0.849398
2.6973 -38.9634 466.121 -0.213237 0.468531 -0.857326
2.93656 -38.9963 466.043 -0.246846 0.502028 -0.828876
3.18724 -39.0265 465.934 -0.179371 0.542379 -0.820763
3.41973 -39.0605 465.875 -0.139952 0.528632 -0.837235
3.64936 -39.0951 465.823 -0.172905 0.530614 -0.82979
3.88646 -39.1292 465.75 -0.145147 0.565397 -0.811947
4.11442 -39.1629 465.703 -0.119352 0.577798 -0.807406
4.35285 -39.1946 465.626 -0.0991186 0.570629 -0.815204
4.57437 -39.2344 465.593 -0.0807056 0.569369 -0.818111
4.8011 -39.2669 465.55 -0.0552574 0.582915 -0.810652
5.03467 -39.3034 465.483 -0.0353769 0.567801 -0.822406
5.24744 -39.3419 465.475 0.0357477 0.596011 -0.80218
5.45655 -39.3831 465.477 0.0298895 0.617213 -0.786228
5.68331 -39.4171 465.431 -0.000175017 0.592034 -0.805913
5.90316 -39.454 465.403 0.05399 0.587588 -0.807357
6.11634 -39.4926 465.393 0.0309295 0.579841 -0.814142
6.33034 -39.531 465.381 0.0598491 0.582842 -0.810379
6.54286 -39.5695 465.373 0.104324 0.544336 -0.832355
6.7478 -39.61 465.386 0.0969121 0.548049 -0.830813
6.96025 -39.6486 465.377 0.0873964 0.587956 -0.804158
7.1746 -39.6867 465.364 0.0934333 0.559259 -0.823711
7.3829 -39.7263 465.367 0.0938093 0.575259 -0.812574
7.59713 -39.7644 465.353 0.167127 0.58471 -0.79384
7.79643 -39.8061 465.381 0.255286 0.517606 -0.816648
7.98369 -39.8509 465.442 0.198299 0.537046 -0.819914
8.19398 -39.8899 465.439 0.204654 0.583429 -0.785957
8.3953 -39.9311 465.461 0.269443 0.556155 -0.786189
8.58384 -39.9755 465.519 0.189323 0.545426 -0.816497
8.78676 -40.0163 465.536 0.176441 0.583161 -0.792964
8.99277 -40.0563 465.544 0.312672 0.587339 -0.746504
9.18017 -40.1009 465.605 0.300493 0.578585 -0.758251
9.37785 -40.1429 465.637 0.308856 0.573568 -0.758701
9.56462 -40.1878 465.7 0.380516 0.548897 -0.744258
9.75151 -40.2326 465.763 0.367549 0.523204 -0.768873
9.94286 -40.2762 465.812 0.345217 0.501507 -0.793295
10.1294 -40.3211 465.875 0.368921 0.553212 -0.746896
10.3115 -40.3672 465.952 0.374268 0.607242 -0.700843
10.498 -40.412 466.015 0.313149 0.601154 -0.735223
10.7013 -40.4526 466.03 0.282633 0.559723 -0.778992
10.8896 -40.497 466.088 0.311696 0.544372 -0.778784
11.085 -40.5382 466.127 0.356819 0.547272 -0.757082
11.2712 -40.5831 466.19 0.58786 0.507385 -0.630064
11.4217 -40.6387 466.358 0.630217 0.496732 -0.596728
11.6057 -40.6843 466.428 0.55068 0.492326 -0.674067
11.7636 -40.7366 466.575 0.511453 0.495081 -0.702361
11.9471 -40.7823 466.647 0.449355 0.545137 -0.707747
12.1249 -40.8295 466.736 0.509659 0.542413 -0.667859
12.3019 -40.877 466.827 0.483318 0.509049 -0.712231
12.4881 -40.9219 466.892 0.4327 0.487569 -0.758319
12.6689 -40.9684 466.973 0.430621 0.50837 -0.745738
12.8516 -41.0144 467.047 0.525406 0.494232 -0.692592
13.0129 -41.066 467.185 0.643093 0.450714 -0.619103
13.1747 -41.1162 467.321 0.706416 0.44804 -0.547939
13.3306 -41.1763 467.474 0.673843 0.48026 -0.561503
13.4885 -41.2234 467.623 0.625873 0.494482 -0.603134
13.6543 -41.2739 467.748 0.564609 0.478323 -0.672625
13.8369 -41.32 467.824 0.625026 0.418981 -0.658634
13.9889 -41.3743 467.99 0.759166 0.377412 -0.530309
14.138 -41.4295 468.165 0.691236 0.41421 -0.592134
14.3058 -41.4801 468.287 0.59527 0.41957 -0.685285
14.4773 -41.5283 468.391 0.620919 0.401021 -0.67353
14.6379 -41.5779 468.535 0.739134 0.406717 -0.536901
14.773 -41.6418 468.753 0.816831 0.416073 -0.399587
14.8997 -41.7024 468.996 0.808553 0.402729 -0.429012
15.0648 -41.7526 469.124 0.69598 0.399288 -0.596809
15.2228 -41.8056 469.275 0.703983 0.399725 -0.58705
15.371 -41.8606 469.455 0.75304 0.407381 -0.516692
15.5321 -41.9137 469.596 0.698292 0.413213 -0.584503
15.683 -41.9687 469.769 0.723777 0.434547 -0.536017
15.8232 -42.0191 469.972 0.827392 0.396332 -0.397925
15.942 -42.091 470.243 0.890903 0.347316 -0.292685
16.0634 -42.1545 470.505 0.903809 0.343659 -0.255006
16.1678 -42.2234 470.819 0.872936 0.361011 -0.328106
16.3093 -42.2809 471.022 0.749097 0.434852 -0.499757
16.4706 -42.3335 471.166 0.743058 0.430431 -0.512438
16.6113 -42.3916 471.371 0.841172 0.369009 -0.3953
16.7367 -42.4547 471.624 0.891526 0.325002 -0.315523
16.8495 -42.5211 471.916 0.914969 0.31105 -0.257059
16.9593 -42.5884 472.217 0.937374 0.256552 -0.23561
17.0512 -42.6654 472.575 0.904425 0.293026 -0.310083
17.1897 -42.723 472.789 0.813164 0.372549 -0.447183
17.3471 -42.7743 472.946 0.871498 0.266018 -0.411978
17.4556 -42.8426 473.254 0.948052 0.197262 -0.249568
17.533 -42.9197 473.658 0.974929 0.182167 -0.127783
17.5989 -43.0002 474.097 0.970859 0.198273 -0.13461
17.6864 -43.0747 474.471 0.955001 0.245641 -0.166232
17.7563 -43.1544 474.901 0.963304 0.231024 -0.136653
17.8247 -43.2347 475.336 0.973898 0.205965 -0.0953975
17.8946 -43.3147 475.767 0.98648 0.154725 -0.0540074
17.9254 -43.4063 476.32 0.992527 0.114294 -0.0427413
17.976 -43.4907 476.816 0.997315 0.0625438 -0.0380873
0.682709 -38.5318 467.128 -0.341304 0.506964 -0.791517
0.931171 -38.5632 467.03 -0.335024 0.50008 -0.798548
1.18928 -38.5923 466.904 -0.376228 0.495201 -0.783089
1.46521 -38.6172 466.73 -0.371367 0.497607 -0.783884
1.72861 -38.6449 466.589 -0.31895 0.502831 -0.803388
1.98052 -38.6753 466.479 -0.271709 0.509054 -0.816724
2.21757 -38.7089 466.409 -0.256327 0.551306 -0.793951
2.47512 -38.7378 466.282 -0.200851 0.582797 -0.787405
2.71291 -38.771 466.21 -0.159936 0.523274 -0.837021
2.94412 -38.806 466.154 -0.216659 0.491184 -0.843681
3.18492 -38.8358 466.075 -0.200548 0.530853 -0.823393
3.42031 -38.8724 466.005 -0.132238 0.538986 -0.83187
3.6518 -38.9075 465.947 -0.134475 0.53702 -0.832782
3.88295 -38.9426 465.891 -0.146156 0.522814 -0.839824
4.11888 -38.9754 465.821 -0.140143 0.542457 -0.828312
4.34829 -39.0126 465.767 -0.0983672 0.579686 -0.80888
4.57715 -39.0455 465.718 -0.0641755 0.571191 -0.818305
4.80291 -39.0806 465.675 -0.0781181 0.570158 -0.817812
5.02481 -39.1179 465.643 0.0103168 0.607053 -0.794594
5.23399 -39.1583 465.644 0.0702378 0.619081 -0.78218
5.4592 -39.1934 465.603 -0.0115935 0.586893 -0.809581
5.68098 -39.2287 465.571 -0.0139759 0.558341 -0.829494
5.89309 -39.2689 465.564 0.0409366 0.579396 -0.814017
6.11034 -39.3065 465.543 0.0396105 0.596021 -0.801992
6.32992 -39.3435 465.515 0.0162108 0.589261 -0.80778
6.55527 -39.3791 465.472 0.118172 0.596033 -0.794216
6.74883 -39.4229 465.516 0.158196 0.596378 -0.78696
6.96058 -39.4612 465.51 0.0442055 0.560598 -0.826907
7.1803 -39.4981 465.481 0.114213 0.557098 -0.822556
7.37234 -39.5417 465.53 0.116246 0.586599 -0.801491
7.59311 -39.5782 465.498 0.095876 0.58522 -0.805187
7.80066 -39.618 465.503 0.272858 0.553014 -0.787226
7.98959 -39.6623 465.56 0.261533 0.522048 -0.811829
8.18875 -39.7041 465.588 0.176088 0.555377 -0.812742
8.3915 -39.745 465.606 0.240617 0.560301 -0.79257
8.59203 -39.7865 465.63 0.238348 0.537092 -0.809149
8.793 -39.8278 465.653 0.20797 0.561684 -0.800786
8.98634 -39.871 465.698 0.297593 0.595536 -0.746174
9.17487 -39.9154 465.756 0.296622 0.598975 -0.743804
9.37665 -39.9565 465.776 0.296871 0.5875 -0.752802
9.56564 -40.0007 465.832 0.343859 0.579094 -0.739196
9.76302 -40.0429 465.865 0.335624 0.567591 -0.751796
9.94951 -40.0877 465.928 0.41762 0.541725 -0.729471
10.1202 -40.1369 466.038 0.446454 0.527361 -0.722889
10.3066 -40.1817 466.102 0.346003 0.536015 -0.770045
10.51 -40.2223 466.117 0.241718 0.533428 -0.810572
10.7076 -40.2644 466.148 0.268071 0.544642 -0.794672
10.9014 -40.3074 466.191 0.328642 0.556535 -0.763062
11.088 -40.3522 466.254 0.404011 0.563611 -0.720498
11.2592 -40.4011 466.362 0.592981 0.534647 -0.602101
11.4192 -40.4528 466.502 0.581478 0.544203 -0.604754
11.597 -40.5 466.591 0.527998 0.56597 -0.633164
11.771 -40.5482 466.691 0.539684 0.542998 -0.643346
11.9462 -40.5961 466.787 0.472906 0.526145 -0.706775
12.1265 -40.6426 466.869 0.459974 0.512897 -0.724818
12.3132 -40.6877 466.934 0.440037 0.510469 -0.738775
12.4909 -40.7344 467.02 0.456166 0.508157 -0.73054
12.669 -40.782 467.111 0.450919 0.507762 -0.734064
12.853 -40.8276 467.182 0.531193 0.51527 -0.672556
13.021 -40.8775 467.3 0.675764 0.443286 -0.588931
13.1661 -40.9279 467.485 0.72724 0.39676 -0.560093
13.3177 -40.9878 467.652 0.666007 0.46017 -0.587093
13.4941 -41.0354 467.746 0.582622 0.482312 -0.654161
13.6708 -41.0831 467.839 0.529358 0.464778 -0.709762
13.8445 -41.1296 467.941 0.657194 0.423025 -0.623816
13.9852 -41.1897 468.14 0.748789 0.412096 -0.519126
14.1436 -41.2419 468.29 0.64668 0.477077 -0.595149
14.3185 -41.2894 468.385 0.584505 0.460158 -0.668288
14.482 -41.341 468.52 0.682536 0.426517 -0.593488
14.6223 -41.3959 468.722 0.786691 0.432816 -0.440213
14.7552 -41.4583 468.946 0.801585 0.424521 -0.421003
14.9182 -41.51 469.082 0.759275 0.392482 -0.519095
15.0604 -41.5692 469.279 0.694332 0.436947 -0.571822
15.2262 -41.6182 469.406 0.723701 0.458466 -0.515815
15.3658 -41.6787 469.612 0.716699 0.475998 -0.509674
15.5304 -41.7276 469.744 0.712334 0.486248 -0.506105
15.668 -41.7863 469.956 0.764697 0.418655 -0.489863
15.8274 -41.8368 470.103 0.853269 0.351694 -0.385023
15.9306 -41.9075 470.42 0.90823 0.304539 -0.28701
16.0405 -41.9741 470.717 0.894336 0.346674 -0.282807
16.1647 -42.0404 470.972 0.847754 0.392218 -0.35704
16.3124 -42.0932 471.156 0.741659 0.437773 -0.508229
16.4665 -42.1477 471.322 0.757342 0.439403 -0.483072
16.6041 -42.2036 471.536 0.846102 0.379969 -0.373813
16.7257 -42.2707 471.801 0.899955 0.323318 -0.292483
16.8287 -42.3398 472.123 0.905353 0.325679 -0.272523
16.9521 -42.4033 472.383 0.927224 0.28667 -0.24099
17.0446 -42.4757 472.738 0.90248 0.275558 -0.331054
17.2021 -42.5296 472.895 0.785102 0.359813 -0.504133
17.3375 -42.59 473.121 0.885016 0.282362 -0.370159
17.4402 -42.6596 473.447 0.958759 0.202337 -0.199604
17.515 -42.7373 473.858 0.971733 0.20381 -0.119146
17.574 -42.8197 474.319 0.967725 0.219902 -0.123091
17.6483 -42.8979 474.735 0.948849 0.277301 -0.150965
17.7512 -42.9681 475.063 0.962241 0.24139 -0.125793
17.8068 -43.0519 475.538 0.97788 0.182016 -0.103059
17.8646 -43.1353 476.007 0.985297 0.158399 -0.0640271
17.8929 -43.2274 476.568 0.983879 0.171898 -0.0493337
17.9493 -43.3116 477.044 0.984653 0.171565 -0.0320059
0.68261 -38.3424 467.259 -0.354436 0.488331 -0.797438
0.939427 -38.3719 467.138 -0.339441 0.480476 -0.808654
1.20938 -38.3984 466.981 -0.384976 0.466414 -0.796399
1.46525 -38.4281 466.861 -0.373602 0.499849 -0.781392
1.72907 -38.4558 466.719 -0.303424 0.547069 -0.78016
1.9728 -38.4881 466.631 -0.198404 0.603048 -0.772637
2.21456 -38.5208 466.548 -0.22441 0.571469 -0.789344
2.45978 -38.5502 466.458 -0.275601 0.542353 -0.793661
2.72245 -38.5799 466.315 -0.163332 0.598077 -0.784618
2.94462 -38.6175 466.284 -0.153193 0.568016 -0.808634
3.19431 -38.648 466.178 -0.20217 0.517043 -0.831741
3.42642 -38.6854 466.117 -0.13606 0.532583 -0.83537
3.65745 -38.7175 466.064 -0.15461 0.518931 -0.840718
3.89989 -38.7494 465.977 -0.129134 0.507003 -0.852216
4.11369 -38.7883 465.968 -0.105714 0.520194 -0.847481
4.34961 -38.8199 465.899 -0.117834 0.552991 -0.824813
4.57892 -38.857 465.845 -0.0592993 0.589387 -0.805671
4.79831 -38.8944 465.82 -0.0341541 0.57269 -0.819061
5.02245 -38.9318 465.781 0.0159053 0.560542 -0.827973
5.23852 -38.9686 465.765 0.00731269 0.544429 -0.838775
5.46074 -39.0045 465.732 -0.0579317 0.54594 -0.835819
5.68797 -39.0406 465.683 0.01873 0.578393 -0.815543
5.89765 -39.0801 465.684 0.056823 0.548314 -0.83434
6.1134 -39.1181 465.668 0.0191205 0.549474 -0.835292
6.32842 -39.1563 465.653 0.0247507 0.568445 -0.822349
6.53531 -39.1964 465.661 0.119018 0.574989 -0.809458
6.74453 -39.236 465.662 0.094728 0.564002 -0.820322
6.97215 -39.2696 465.612 0.0398696 0.539327 -0.841152
7.17148 -39.3129 465.64 0.154896 0.558842 -0.81468
7.38191 -39.352 465.637 0.108989 0.566698 -0.816685
7.59541 -39.3904 465.626 0.0809315 0.593488 -0.800764
7.8013 -39.4306 465.635 0.236435 0.616733 -0.750826
7.99572 -39.4737 465.677 0.293985 0.584362 -0.756369
8.19014 -39.5166 465.719 0.191844 0.541392 -0.818591
8.40193 -39.5554 465.711 0.207584 0.544334 -0.812779
8.59005 -39.5999 465.771 0.267865 0.563701 -0.781338
8.78495 -39.6427 465.811 0.275965 0.572014 -0.772427
8.97804 -39.6861 465.857 0.302302 0.596279 -0.743683
9.17713 -39.7279 465.884 0.279204 0.580105 -0.765195
9.36871 -39.7715 465.934 0.296909 0.56409 -0.770485
9.56119 -39.8149 465.98 0.325107 0.562068 -0.760516
9.74824 -39.8598 466.043 0.327013 0.563317 -0.758773
9.9427 -39.9027 466.084 0.408808 0.56417 -0.717348
10.1298 -39.9477 466.148 0.425749 0.522549 -0.738702
10.3184 -39.9919 466.204 0.31611 0.503325 -0.804201
10.507 -40.0363 466.262 0.262668 0.539911 -0.799688
10.7021 -40.079 466.3 0.300598 0.568853 -0.765537
10.8891 -40.1238 466.363 0.36187 0.571546 -0.736468
11.0749 -40.1685 466.427 0.45616 0.555622 -0.695128
11.253 -40.216 466.517 0.604229 0.500169 -0.620273
11.4099 -40.2685 466.666 0.589605 0.49658 -0.637004
11.5876 -40.3158 466.756 0.509312 0.528096 -0.679497
11.7615 -40.364 466.856 0.492015 0.53916 -0.68354
11.9478 -40.409 466.92 0.451586 0.531165 -0.716892
12.1302 -40.4551 466.996 0.45007 0.510904 -0.732403
12.3063 -40.5028 467.091 0.442575 0.523913 -0.727766
12.4929 -40.5479 467.155 0.450981 0.555593 -0.698522
12.6741 -40.5939 467.233 0.489547 0.549266 -0.677238
12.8416 -40.6441 467.353 0.520564 0.54443 -0.65773
13.0212 -40.6909 467.438 0.653587 0.482665 -0.582975
13.1726 -40.745 467.605 0.745454 0.410964 -0.524792
13.3251 -40.7992 467.769 0.64513 0.4823 -0.592616
13.4947 -40.8487 467.883 0.537724 0.522758 -0.661496
13.6659 -40.8978 467.993 0.536068 0.538633 -0.650004
13.8376 -40.946 468.101 0.680549 0.500176 -0.535423
13.9807 -41.0035 468.293 0.742796 0.451081 -0.494752
14.1373 -41.0568 468.448 0.587956 0.554895 -0.588557
14.3174 -41.1032 468.53 0.580458 0.568291 -0.583193
14.4713 -41.1574 468.692 0.737332 0.4768 -0.478543
14.6106 -41.2133 468.897 0.794161 0.415819 -0.443173
14.7632 -41.2695 469.063 0.759286 0.415165 -0.501121
14.9085 -41.3239 469.251 0.750935 0.43832 -0.493936
15.0542 -41.3822 469.439 0.720767 0.468941 -0.51048
15.2117 -41.4328 469.591 0.728787 0.479268 -0.489052
15.3535 -41.4928 469.791 0.719046 0.489761 -0.493059
15.5175 -41.5443 469.924 0.675641 0.518009 -0.524573
15.6829 -41.5955 470.053 0.767164 0.44602 -0.461005
15.8039 -41.6588 470.316 0.860692 0.366791 -0.353093
15.9283 -41.7213 470.57 0.926072 0.259001 -0.274424
16.0242 -41.7917 470.909 0.905522 0.279404 -0.319315
16.1647 -41.8561 471.116 0.822065 0.399376 -0.405842
16.299 -41.912 471.34 0.749913 0.447729 -0.487001
16.4593 -41.9627 471.487 0.766703 0.456636 -0.451276
16.588 -42.0183 471.728 0.846106 0.395416 -0.357423
16.7194 -42.0854 471.964 0.905672 0.316647 -0.281945
16.8191 -42.1553 472.296 0.914876 0.277221 -0.293515
16.9462 -42.2178 472.545 0.912082 0.293206 -0.286595
17.0581 -42.2939 472.844 0.88418 0.317728 -0.342453
17.1924 -42.3433 473.07 0.796217 0.357119 -0.488369
17.3451 -42.4004 473.243 0.899882 0.283359 -0.331543
17.4358 -42.4734 473.605 0.97137 0.166222 -0.169735
17.493 -42.556 474.071 0.979369 0.16018 -0.123201
17.5726 -42.6324 474.469 0.977203 0.174171 -0.121407
17.6322 -42.7146 474.93 0.965478 0.192448 -0.175544
17.7345 -42.7849 475.261 0.971671 0.176684 -0.156969
17.7898 -42.8687 475.737 0.983766 0.146986 -0.102957
17.8631 -42.9475 476.159 0.990213 0.126458 -0.0590558
17.8723 -43.0449 476.779 0.988329 0.144888 -0.0470482
0.691175 -38.1509 467.367 -0.382593 0.426696 -0.819483
0.952738 -38.1795 467.233 -0.345029 0.480394 -0.806335
1.20153 -38.2109 467.133 -0.348379 0.499198 -0.793368
1.46953 -38.2379 466.98 -0.338007 0.520323 -0.78423
1.72167 -38.2684 466.87 -0.266911 0.542813 -0.796312
1.96253 -38.3014 466.79 -0.245012 0.558443 -0.792534
2.22695 -38.3286 466.646 -0.251384 0.557519 -0.791188
2.46927 -38.3616 466.561 -0.229651 0.55694 -0.798172
2.70009 -38.3991 466.505 -0.201822 0.58547 -0.78517
2.95518 -38.4267 466.387 -0.194945 0.587584 -0.785329
3.19534 -38.4591 466.307 -0.171745 0.576413 -0.798907
3.4267 -38.4924 466.252 -0.134378 0.580139 -0.803356
3.66852 -38.5264 466.166 -0.156694 0.55473 -0.817142
3.8954 -38.5623 466.121 -0.100529 0.559996 -0.822374
4.13028 -38.5962 466.054 -0.0590221 0.548338 -0.834172
4.34563 -38.6339 466.041 -0.0863967 0.521573 -0.848821
4.57234 -38.6704 465.996 -0.0904511 0.556168 -0.826133
4.80894 -38.7034 465.924 -0.0435451 0.591477 -0.805145
5.02588 -38.7417 465.905 0.00390671 0.592382 -0.805648
5.24748 -38.7773 465.874 0.0144516 0.566153 -0.824173
5.45979 -38.8175 465.867 -0.0153994 0.557929 -0.829746
5.67996 -38.8547 465.839 -0.00800674 0.610672 -0.791843
5.9069 -38.8901 465.791 0.066655 0.593708 -0.801915
6.10958 -38.9313 465.811 0.0495942 0.576139 -0.815846
6.33544 -38.967 465.767 0.0440945 0.592992 -0.804
6.54995 -39.0053 465.753 0.0979376 0.551988 -0.828081
6.76008 -39.0447 465.752 0.0581441 0.556467 -0.828832
6.9672 -39.0847 465.759 0.0846646 0.588945 -0.803726
7.18028 -39.1233 465.749 0.160447 0.556702 -0.81507
7.37738 -39.1657 465.784 0.141624 0.552563 -0.821351
7.58189 -39.2064 465.798 0.136138 0.609268 -0.78119
7.78827 -39.2465 465.806 0.203724 0.625125 -0.753469
7.9898 -39.2878 465.828 0.217987 0.599391 -0.770202
8.2018 -39.3266 465.82 0.19964 0.55161 -0.809858
8.3899 -39.3712 465.88 0.247039 0.559472 -0.791178
8.59336 -39.4119 465.896 0.281996 0.576858 -0.766625
8.78737 -39.4551 465.939 0.316668 0.564144 -0.762537
8.97463 -39.4998 466.001 0.271127 0.558744 -0.78377
9.17871 -39.5404 466.015 0.25992 0.562251 -0.785057
9.37103 -39.584 466.063 0.301373 0.559893 -0.771812
9.56829 -39.6262 466.096 0.327088 0.553085 -0.766231
9.7564 -39.6706 466.154 0.35445 0.560938 -0.74814
9.94352 -39.7156 466.218 0.360221 0.551241 -0.752578
10.1306 -39.7605 466.281 0.370836 0.528977 -0.763325
10.3186 -39.8049 466.339 0.351149 0.528146 -0.773147
10.51 -39.8487 466.39 0.310692 0.53529 -0.785452
10.705 -39.8915 466.429 0.320887 0.543033 -0.775981
10.8947 -39.9356 466.483 0.37477 0.548013 -0.747816
11.0814 -39.9805 466.547 0.459065 0.525665 -0.716195
11.2524 -40.0294 466.656 0.591124 0.513951 -0.621632
11.4176 -40.0798 466.781 0.584596 0.525955 -0.617753
11.5905 -40.1283 466.885 0.516848 0.514054 -0.684556
11.7675 -40.1759 466.977 0.468996 0.494303 -0.73192
11.949 -40.2219 467.054 0.426811 0.48653 -0.762313
12.132 -40.2681 467.13 0.463703 0.503492 -0.729023
12.3113 -40.3146 467.213 0.487111 0.503761 -0.713406
12.4819 -40.3639 467.325 0.462196 0.499922 -0.732429
12.665 -40.4098 467.399 0.499875 0.523865 -0.689703
12.8407 -40.4577 467.495 0.521415 0.509164 -0.684747
13.0185 -40.505 467.585 0.641319 0.456803 -0.616475
13.1631 -40.561 467.772 0.749005 0.435053 -0.49972
13.3095 -40.6167 467.954 0.62894 0.529147 -0.569595
13.4939 -40.6621 468.025 0.544581 0.585408 -0.600606
13.6556 -40.7139 468.162 0.571438 0.555454 -0.604094
13.8289 -40.7625 468.266 0.663093 0.533675 -0.524879
13.9752 -40.8183 468.45 0.737339 0.50858 -0.444609
14.1187 -40.8749 468.642 0.603672 0.53736 -0.588918
14.3037 -40.9203 468.711 0.589915 0.506619 -0.628758
14.459 -40.9739 468.869 0.732826 0.432536 -0.525242
14.6188 -41.0291 469.014 0.777562 0.404794 -0.481185
14.7479 -41.0869 469.25 0.77429 0.402892 -0.48801
14.9051 -41.1428 469.403 0.761608 0.424013 -0.490068
15.048 -41.1995 469.599 0.745282 0.42583 -0.513053
15.2036 -41.2508 469.757 0.747391 0.417725 -0.516636
15.3505 -41.3068 469.941 0.725009 0.47026 -0.503207
15.5075 -41.3602 470.096 0.669681 0.501425 -0.547815
15.659 -41.4131 470.267 0.772388 0.448233 -0.450004
15.8002 -41.4729 470.47 0.844455 0.384204 -0.373206
15.9377 -41.5317 470.684 0.927833 0.232855 -0.291383
16.0197 -41.6058 471.065 0.918851 0.256471 -0.299893
16.1538 -41.6659 471.291 0.8116 0.412362 -0.41384
16.2987 -41.7228 471.484 0.769395 0.438097 -0.464869
16.4434 -41.78 471.678 0.782422 0.433696 -0.446903
16.5834 -41.8385 471.887 0.846314 0.383732 -0.369463
16.7067 -41.9017 472.147 0.895502 0.31879 -0.310561
16.8273 -41.9658 472.416 0.9209 0.266318 -0.284636
16.9247 -42.0364 472.755 0.902149 0.317214 -0.292409
17.0535 -42.1016 473.001 0.857609 0.353369 -0.37368
17.1997 -42.1519 473.191 0.822156 0.326576 -0.46627
17.3289 -42.2175 473.437 0.903672 0.283984 -0.320516
17.4318 -42.287 473.763 0.971026 0.186885 -0.148937
17.4889 -42.3694 474.23 0.978817 0.169535 -0.11478
17.5573 -42.4489 474.663 0.971637 0.198065 -0.129194
17.6381 -42.525 475.059 0.965583 0.192187 -0.175253
17.7342 -42.5969 475.408 0.980405 0.113183 -0.161232
17.7864 -42.6815 475.894 0.992057 0.0608437 -0.110099
17.8349 -42.7672 476.393 0.994353 0.0911664 -0.0543232
17.8533 -42.8618 476.986 0.991955 0.120087 -0.0400482
0.697259 -37.9599 467.481 -0.33124 0.467276 -0.819715
0.954421 -37.9896 467.359 -0.32539 0.489557 -0.808984
1.21376 -38.0187 467.23 -0.330805 0.501941 -0.799139
1.46967 -38.0485 467.111 -0.332711 0.510431 -0.792946
1.72792 -38.0777 466.984 -0.254917 0.542191 -0.800654
1.97066 -38.1104 466.899 -0.265108 0.499875 -0.824525
2.21364 -38.143 466.813 -0.281143 0.482495 -0.829552
2.4597 -38.1751 466.718 -0.206551 0.54848 -0.810251
2.70816 -38.206 466.617 -0.209326 0.559344 -0.80207
2.94433 -38.24 466.548 -0.214638 0.572379 -0.7914
3.18796 -38.2722 466.459 -0.160637 0.607454 -0.777943
3.42643 -38.3055 466.383 -0.159709 0.583941 -0.795931
3.66328 -38.3407 466.311 -0.149902 0.571704 -0.80665
3.89929 -38.3718 466.243 -0.109183 0.580635 -0.80681
4.12606 -38.4077 466.199 -0.0774158 0.587804 -0.805291
4.36087 -38.4417 466.132 -0.0331915 0.568857 -0.821766
4.57562 -38.4814 466.119 -0.0586343 0.523047 -0.850285
4.79358 -38.5192 466.098 -0.0544974 0.552257 -0.831891
5.01939 -38.5552 466.055 -0.0304203 0.58699 -0.809023
5.24638 -38.5908 466.009 0.0116008 0.597082 -0.802096
5.4617 -38.6291 465.994 0.0576525 0.565557 -0.822692
5.6708 -38.6689 465.997 -0.0498732 0.535339 -0.843163
5.9069 -38.7023 465.925 0.0390784 0.578335 -0.814863
6.10493 -38.7447 465.958 0.0709296 0.573603 -0.816057
6.33018 -38.7837 465.913 -0.00901788 0.576662 -0.816933
6.54447 -38.8189 465.902 0.109832 0.598467 -0.793583
6.74546 -38.8605 465.927 0.111764 0.600415 -0.79184
6.96645 -38.8973 465.895 0.053771 0.605522 -0.79401
7.18451 -38.9348 465.871 0.156141 0.579134 -0.80014
7.37891 -38.9779 465.914 0.21792 0.523737 -0.823535
7.58322 -39.0186 465.928 0.156684 0.530768 -0.832908
7.78768 -39.0593 465.942 0.164397 0.595432 -0.786406
7.99549 -39.0991 465.947 0.15149 0.606945 -0.780172
8.199 -39.1399 465.963 0.222983 0.588179 -0.777383
8.39572 -39.1824 465.998 0.279667 0.572566 -0.770684
8.58913 -39.2258 466.044 0.273593 0.58274 -0.76522
8.78204 -39.2692 466.089 0.299886 0.597429 -0.743739
8.9829 -39.3106 466.113 0.272629 0.548486 -0.790466
9.17367 -39.3546 466.165 0.264256 0.536572 -0.801411
9.37181 -39.3966 466.196 0.300091 0.580337 -0.75707
9.55883 -39.4415 466.259 0.345946 0.594873 -0.725567
9.74577 -39.4864 466.322 0.343431 0.600013 -0.722523
9.94402 -39.5284 466.352 0.334682 0.565957 -0.753446
10.1354 -39.5722 466.402 0.364086 0.531091 -0.765103
10.3222 -39.6171 466.466 0.349799 0.538457 -0.766619
10.5138 -39.6608 466.515 0.323717 0.53884 -0.777727
10.7021 -39.7053 466.574 0.343324 0.545455 -0.764596
10.8889 -39.7502 466.637 0.375444 0.567658 -0.732671
11.0752 -39.7951 466.701 0.504497 0.543779 -0.670661
11.2359 -39.8468 466.84 0.606171 0.483765 -0.631291
11.4055 -39.8961 466.954 0.543064 0.510834 -0.666431
11.5889 -39.9418 467.026 0.473632 0.537988 -0.69731
11.7723 -39.9877 467.1 0.44534 0.500943 -0.742111
11.9574 -40.033 467.168 0.460099 0.491286 -0.739558
12.1302 -40.0816 467.272 0.470702 0.539001 -0.698511
12.3129 -40.1276 467.348 0.46841 0.568114 -0.676638
12.4977 -40.1731 467.417 0.500666 0.552347 -0.666518
12.6657 -40.2229 467.535 0.488406 0.553881 -0.674296
12.8499 -40.2686 467.607 0.516096 0.545393 -0.660448
13.0133 -40.3196 467.739 0.675982 0.488617 -0.551636
13.1603 -40.375 467.919 0.765166 0.434887 -0.474757
13.3054 -40.4309 468.105 0.657669 0.485193 -0.576246
13.4728 -40.481 468.226 0.522138 0.576015 -0.62895
13.6567 -40.5268 468.299 0.598446 0.567072 -0.565943
13.8022 -40.5828 468.485 0.686553 0.538405 -0.488636
13.9563 -40.6365 468.646 0.691662 0.517122 -0.50417
14.1327 -40.6844 468.741 0.57491 0.429019 -0.696722
14.312 -40.7314 468.827 0.607428 0.387071 -0.693691
14.4644 -40.7815 468.993 0.745299 0.384123 -0.544958
14.6035 -40.8448 469.2 0.77701 0.391925 -0.492595
14.7597 -40.8968 469.356 0.780715 0.40874 -0.472669
14.8946 -40.9537 469.575 0.753003 0.428795 -0.49912
15.0562 -41.008 469.715 0.740188 0.427103 -0.519331
15.202 -41.0643 469.903 0.777317 0.40819 -0.478706
15.3357 -41.1244 470.127 0.723158 0.467424 -0.508485
15.5092 -41.1728 470.233 0.69834 0.448467 -0.557851
15.6559 -41.2289 470.419 0.789906 0.381082 -0.480443
15.7947 -41.2874 470.629 0.8248 0.341824 -0.450401
15.9331 -41.346 470.84 0.928081 0.24846 -0.27737
16.0095 -41.4266 471.24 0.919635 0.297128 -0.256879
16.1462 -41.4818 471.457 0.800861 0.429099 -0.417726
16.289 -41.5383 471.657 0.769014 0.455416 -0.448568
16.4384 -41.5937 471.837 0.79121 0.429166 -0.435664
16.5739 -41.6538 472.06 0.844211 0.377872 -0.380159
16.7037 -41.7152 472.3 0.890303 0.311783 -0.331892
16.8159 -41.7815 472.595 0.934014 0.233919 -0.27
16.9131 -41.8521 472.935 0.904947 0.269006 -0.329707
17.0675 -41.9118 473.104 0.829835 0.33497 -0.446284
17.1925 -41.9656 473.358 0.843451 0.348829 -0.408545
17.3305 -42.0294 473.578 0.914152 0.287029 -0.286251
17.4141 -42.1042 473.963 0.966831 0.21635 -0.135762
17.4708 -42.1867 474.431 0.971085 0.217194 -0.0990939
17.5432 -42.2649 474.852 0.967928 0.20199 -0.149384
17.6347 -42.3379 475.216 0.953985 0.221451 -0.202169
17.7382 -42.4077 475.543 0.964 0.223336 -0.144309
17.8001 -42.4893 475.999 0.984078 0.166822 -0.0613247
17.822 -42.5824 476.58 0.993467 0.107983 -0.0369126
17.8552 -42.6726 477.128 0.996107 0.076003 -0.0446644
-0.101448 -37.6864 468.049 -0.419725 0.496124 -0.760061
0.16551 -37.7142 467.902 -0.406872 0.52342 -0.748656
0.448136 -37.7385 467.712 -0.352803 0.544239 -0.76114
0.709782 -37.7673 467.578 -0.2842 0.550172 -0.785201
0.960528 -37.7986 467.473 -0.306006 0.512293 -0.802444
1.21328 -37.8293 467.363 -0.324215 0.498757 -0.803819
1.47271 -37.8584 467.234 -0.310503 0.525618 -0.792031
1.72306 -37.8895 467.129 -0.291638 0.542919 -0.787519
1.98716 -37.9175 466.986 -0.266872 0.535763 -0.801085
2.23614 -37.9488 466.883 -0.214662 0.514856 -0.829966
2.46529 -37.9845 466.835 -0.21232 0.492087 -0.844258
2.70416 -38.0141 466.763 -0.201708 0.535821 -0.819884
2.94399 -38.0512 466.681 -0.187889 0.557858 -0.808388
3.18341 -38.084 466.604 -0.212013 0.536416 -0.816889
3.42893 -38.1135 466.511 -0.177422 0.573449 -0.799798
3.66379 -38.1504 466.443 -0.139148 0.583505 -0.8001
3.89492 -38.185 466.387 -0.10533 0.572189 -0.813329
4.12313 -38.221 466.338 -0.105539 0.57559 -0.810899
4.35525 -38.259 466.276 -0.0805348 0.5863 -0.806081
4.58574 -38.2929 466.222 -0.0090183 0.582856 -0.812525
4.80608 -38.3262 466.198 -0.0152929 0.537337 -0.843229
5.02335 -38.3667 466.177 -0.0334477 0.527878 -0.848661
5.24018 -38.4041 466.159 -0.0396344 0.549181 -0.834763
5.47187 -38.4387 466.099 0.0139358 0.55171 -0.83392
5.68691 -38.4771 466.086 -0.00282889 0.505087 -0.863064
5.8996 -38.5161 466.078 0.0220402 0.525504 -0.850505
6.11844 -38.5535 466.053 0.0705422 0.561796 -0.824263
6.32767 -38.5933 466.055 0.0234516 0.576489 -0.816768
6.54718 -38.6273 466.03 0.113114 0.602497 -0.790065
6.75157 -38.6713 466.043 0.110134 0.570597 -0.813812
6.96348 -38.7103 466.037 0.0208223 0.581288 -0.813431
7.18163 -38.7478 466.013 0.106529 0.640669 -0.760391
7.39434 -38.7866 466.004 0.228711 0.627765 -0.744044
7.58358 -38.831 466.062 0.253315 0.598899 -0.759705
7.77709 -38.8743 466.106 0.184498 0.633419 -0.751493
7.98682 -38.9137 466.106 0.137909 0.619109 -0.773101
8.19608 -38.9533 466.106 0.214017 0.597062 -0.773119
8.39036 -38.9964 466.149 0.293965 0.603277 -0.741378
8.58372 -39.0397 466.194 0.301065 0.582138 -0.755298
8.77909 -39.0826 466.233 0.22379 0.571417 -0.789557
8.98919 -39.1218 466.23 0.25708 0.571046 -0.779626
9.17616 -39.1666 466.293 0.333638 0.569583 -0.751173
9.36451 -39.2115 466.354 0.334079 0.589946 -0.735089
9.55473 -39.2552 466.406 0.35243 0.597222 -0.720499
9.74828 -39.2987 466.451 0.292095 0.577322 -0.762482
9.947 -39.3406 466.48 0.296218 0.554917 -0.777381
10.1339 -39.3855 466.543 0.369591 0.551868 -0.747559
10.3208 -39.4304 466.606 0.343908 0.574147 -0.743022
10.5159 -39.4732 466.646 0.338931 0.591502 -0.731608
10.7025 -39.5181 466.709 0.382662 0.573893 -0.724028
10.8881 -39.5635 466.776 0.395053 0.552393 -0.734026
11.0728 -39.6088 466.846 0.481344 0.535764 -0.693733
11.2548 -39.655 466.923 0.605348 0.492498 -0.6253
11.409 -39.7082 467.081 0.548102 0.493234 -0.675504
11.5919 -39.7542 467.155 0.417853 0.528406 -0.739044
11.7784 -39.7992 467.22 0.437482 0.54406 -0.715967
11.9529 -39.8473 467.319 0.515375 0.546179 -0.660361
12.1214 -39.897 467.436 0.50128 0.579248 -0.642799
12.3028 -39.9437 467.517 0.456911 0.611176 -0.646294
12.4736 -39.992 467.624 0.48982 0.605338 -0.627409
12.6572 -40.0383 467.699 0.488586 0.56708 -0.663101
12.8326 -40.0862 467.796 0.540779 0.523753 -0.65821
13.0022 -40.1357 467.91 0.680055 0.491836 -0.543711
13.1524 -40.1902 468.081 0.744727 0.46356 -0.480097
13.3033 -40.2446 468.251 0.68662 0.477692 -0.548054
13.4685 -40.2952 468.378 0.562867 0.523437 -0.639683
13.6364 -40.3453 468.498 0.634234 0.521775 -0.570524
13.7912 -40.3988 468.657 0.681838 0.486283 -0.546467
13.9679 -40.4466 468.751 0.553906 0.477268 -0.682205
14.1515 -40.4925 468.825 0.546846 0.423269 -0.722359
14.3072 -40.5459 468.982 0.674888 0.380554 -0.632222
14.4633 -40.5991 469.138 0.770097 0.372902 -0.517585
14.6072 -40.6557 469.33 0.793481 0.38094 -0.47463
14.7423 -40.7172 469.549 0.772277 0.440677 -0.457593
14.8941 -40.7692 469.718 0.727016 0.495674 -0.475137
15.0473 -40.8234 469.883 0.731187 0.485585 -0.479138
15.1889 -40.8803 470.084 0.78638 0.426409 -0.446969
15.3392 -40.9359 470.259 0.702101 0.424435 -0.571759
15.511 -40.9838 470.369 0.698217 0.425038 -0.576052
15.6499 -41.0399 470.578 0.784728 0.371372 -0.49627
15.8094 -41.0963 470.727 0.846406 0.311269 -0.432097
15.9135 -41.1641 471.042 0.939281 0.242133 -0.243152
16.0014 -41.2365 471.406 0.917656 0.296945 -0.264067
16.1349 -41.2987 471.635 0.806044 0.409111 -0.427694
16.2819 -41.3571 471.823 0.773963 0.413224 -0.47982
16.4287 -41.407 472.009 0.799821 0.39159 -0.45491
16.5668 -41.4684 472.225 0.846116 0.33571 -0.413987
16.7018 -41.5283 472.45 0.892493 0.265893 -0.364358
16.8214 -41.5925 472.722 0.935734 0.210242 -0.283196
16.9249 -41.6612 473.044 0.899941 0.26839 -0.343617
17.0563 -41.7248 473.283 0.833304 0.379264 -0.402197
17.1847 -41.7769 473.526 0.842648 0.398944 -0.361647
17.3166 -41.8456 473.766 0.914118 0.33447 -0.229168
17.3863 -41.9242 474.194 0.961937 0.249719 -0.110983
17.4554 -42.003 474.624 0.965728 0.227882 -0.124252
17.5471 -42.0757 474.986 0.955962 0.25194 -0.150541
17.6188 -42.1542 475.411 0.946474 0.280685 -0.15938
17.6968 -42.231 475.817 0.960041 0.251072 -0.123629
17.7504 -42.3149 476.299 0.968995 0.239634 -0.0602036
17.8185 -42.3949 476.739 0.976441 0.213418 -0.0318569
17.8429 -42.4873 477.313 0.989074 0.146588 -0.0156576
-0.0993394 -37.4957 468.174 -0.401945 0.493423 -0.771346
0.179293 -37.5211 467.995 -0.406362 0.509361 -0.758565
0.444039 -37.5495 467.854 -0.363219 0.533918 -0.763547
0.700613 -37.5796 467.734 -0.308733 0.565515 -0.764772
0.966941 -37.6074 467.587 -0.295362 0.566155 -0.769565
1.22308 -37.6375 467.467 -0.287461 0.540015 -0.791044
1.46898 -37.6697 467.375 -0.298319 0.523373 -0.798177
1.72958 -37.6987 467.242 -0.31624 0.502424 -0.804712
1.97635 -37.7306 467.146 -0.290731 0.536541 -0.792212
2.22943 -37.7611 467.033 -0.208362 0.594818 -0.776387
2.47653 -37.7928 466.936 -0.146132 0.559843 -0.815611
2.70356 -37.8291 466.893 -0.187056 0.513485 -0.837462
2.95058 -37.8646 466.791 -0.221177 0.51916 -0.825562
3.19318 -37.8933 466.708 -0.181946 0.516435 -0.836774
3.41601 -37.9308 466.676 -0.182427 0.538169 -0.822857
3.66546 -37.9628 466.569 -0.156561 0.579327 -0.799918
3.89627 -37.9952 466.516 -0.0988705 0.580529 -0.808215
4.12673 -38.0321 466.46 -0.0988828 0.56091 -0.82195
4.35343 -38.0676 466.416 -0.0948629 0.558576 -0.824011
4.57938 -38.1017 466.375 -0.0654796 0.571937 -0.81768
4.80736 -38.1371 466.327 -0.0136291 0.584988 -0.810927
5.02741 -38.1768 466.299 0.00577884 0.580493 -0.814245
5.2509 -38.2117 466.263 -0.0325677 0.563774 -0.825287
5.4687 -38.2512 466.241 -0.0413711 0.548891 -0.83487
5.69538 -38.287 466.195 0.0350837 0.560427 -0.82746
5.90538 -38.3266 466.195 0.0807024 0.574918 -0.814221
6.11331 -38.3667 466.201 0.0962432 0.598315 -0.79546
6.32282 -38.4064 466.202 0.0682151 0.598059 -0.798544
6.53927 -38.4445 466.184 0.0633032 0.573338 -0.81687
6.75329 -38.4831 466.172 0.117057 0.556261 -0.822722
6.9582 -38.5238 466.186 0.104175 0.552165 -0.827201
7.16203 -38.5648 466.202 0.0949141 0.601246 -0.793407
7.3722 -38.6042 466.201 0.189465 0.612973 -0.767051
7.57358 -38.6457 466.224 0.289517 0.549222 -0.783923
7.76828 -38.6888 466.266 0.14066 0.529941 -0.836288
7.99528 -38.7241 466.216 0.104981 0.55455 -0.825502
8.18691 -38.7679 466.267 0.239527 0.587029 -0.77332
8.38722 -38.8097 466.292 0.2652 0.597343 -0.756869
8.58654 -38.8516 466.321 0.267399 0.554519 -0.78804
8.78375 -38.894 466.354 0.224632 0.52257 -0.822473
8.97892 -38.937 466.395 0.272563 0.549485 -0.789795
9.17018 -38.9808 466.446 0.362172 0.562621 -0.743161
9.35852 -39.0254 466.505 0.350118 0.575765 -0.738858
9.55028 -39.0691 466.555 0.307946 0.602008 -0.736719
9.74741 -39.1116 466.589 0.264209 0.599087 -0.755836
9.9451 -39.1538 466.621 0.313697 0.577093 -0.754028
10.132 -39.1988 466.685 0.391649 0.555683 -0.733368
10.3162 -39.2444 466.756 0.366799 0.551501 -0.749203
10.5031 -39.2893 466.819 0.32787 0.576883 -0.748136
10.7 -39.3317 466.854 0.35765 0.586749 -0.726507
10.8867 -39.3766 466.917 0.405571 0.571076 -0.713712
11.0697 -39.4226 466.992 0.487415 0.538454 -0.687383
11.2316 -39.4738 467.127 0.579684 0.501192 -0.642474
11.4105 -39.5208 467.214 0.539481 0.497228 -0.679504
11.5882 -39.5681 467.304 0.444929 0.527362 -0.723828
11.7684 -39.6147 467.387 0.473301 0.544908 -0.692143
11.9441 -39.6625 467.483 0.557061 0.497492 -0.664969
12.1125 -39.7122 467.6 0.535083 0.495097 -0.684518
12.2906 -39.7595 467.689 0.472285 0.537869 -0.698315
12.4773 -39.8045 467.753 0.442041 0.536228 -0.719068
12.664 -39.8495 467.817 0.460794 0.516567 -0.721684
12.8415 -39.897 467.909 0.590469 0.470816 -0.655499
12.9944 -39.9507 468.072 0.702486 0.453522 -0.548482
13.145 -40.0094 468.242 0.719309 0.487055 -0.495349
13.3 -40.0584 468.4 0.666946 0.500975 -0.55155
13.4648 -40.1092 468.529 0.605502 0.489531 -0.627476
13.6355 -40.1585 468.641 0.640995 0.420334 -0.642219
13.7994 -40.2096 468.773 0.62548 0.416513 -0.659766
13.9684 -40.2594 468.89 0.491722 0.498316 -0.714067
14.1523 -40.3053 468.963 0.556779 0.479184 -0.678513
14.3188 -40.3542 469.088 0.716055 0.392776 -0.577055
14.4628 -40.4101 469.28 0.789882 0.362255 -0.494832
14.5977 -40.4712 469.499 0.817767 0.392753 -0.420716
14.7335 -40.5299 469.716 0.782186 0.458795 -0.421535
14.8763 -40.5868 469.912 0.716593 0.510151 -0.475647
15.0347 -40.6396 470.063 0.722628 0.459194 -0.516672
15.194 -40.6923 470.211 0.752187 0.387235 -0.533163
15.3464 -40.7468 470.379 0.706223 0.388398 -0.591943
15.5021 -40.8005 470.538 0.704668 0.407298 -0.580992
15.6647 -40.8515 470.677 0.775647 0.389486 -0.496662
15.7918 -40.9139 470.923 0.862464 0.356503 -0.359252
15.9117 -40.9774 471.191 0.941044 0.256413 -0.220653
15.99 -41.0521 471.584 0.919166 0.270314 -0.28647
16.1364 -41.1087 471.773 0.793373 0.402824 -0.45639
16.2838 -41.1649 471.96 0.778186 0.391332 -0.491208
16.4278 -41.2142 472.154 0.79861 0.34975 -0.489793
16.5768 -41.2782 472.339 0.842921 0.293446 -0.45097
16.706 -41.3396 472.582 0.896773 0.247974 -0.366478
16.8167 -41.4062 472.881 0.933606 0.235384 -0.270138
16.9109 -41.4774 473.231 0.901957 0.318465 -0.29164
17.0449 -41.5402 473.462 0.832827 0.434249 -0.343258
17.1709 -41.5964 473.715 0.853664 0.417491 -0.311382
17.283 -41.667 474.014 0.928246 0.305374 -0.212381
17.3719 -41.7402 474.383 0.967153 0.21568 -0.134527
17.4429 -41.8184 474.808 0.972709 0.189322 -0.134145
17.5029 -41.8998 475.268 0.962317 0.228662 -0.147171
17.5971 -41.9719 475.624 0.953006 0.25685 -0.16065
17.6932 -42.0436 475.975 0.970399 0.218763 -0.102318
17.7263 -42.1331 476.521 0.98162 0.178317 -0.0680117
17.7704 -42.2196 477.034 0.988163 0.140027 -0.0626534
17.8128 -42.3069 477.555 0.991511 0.127132 -0.027268
-0.095809 -37.3047 468.295 -0.385818 0.500859 -0.77478
0.165147 -37.3341 468.164 -0.405269 0.481739 -0.776971
0.445008 -37.3592 467.982 -0.353596 0.514051 -0.781487
0.697411 -37.3904 467.873 -0.321937 0.536333 -0.780194
0.958957 -37.4194 467.74 -0.335206 0.526965 -0.78099
1.21735 -37.449 467.614 -0.302338 0.536617 -0.787803
1.47963 -37.4778 467.477 -0.319487 0.508883 -0.799353
1.73713 -37.5075 467.353 -0.288031 0.503654 -0.814476
1.97799 -37.5408 467.273 -0.246959 0.529982 -0.811252
2.22462 -37.5728 467.178 -0.275385 0.526309 -0.804464
2.47924 -37.603 467.06 -0.201085 0.530592 -0.82343
2.71347 -37.6377 466.997 -0.176393 0.520411 -0.835498
2.95399 -37.6709 466.917 -0.229315 0.512435 -0.827541
3.19625 -37.7036 466.832 -0.161207 0.508772 -0.845673
3.42849 -37.7386 466.774 -0.150661 0.499009 -0.8534
3.65724 -37.7744 466.725 -0.177207 0.528752 -0.830072
3.89662 -37.8075 466.646 -0.126011 0.566772 -0.814181
4.12651 -37.843 466.594 -0.0970614 0.57641 -0.811376
4.35853 -37.8779 466.535 -0.0784146 0.564335 -0.821814
4.58355 -37.9143 466.495 -0.0586913 0.542683 -0.837885
4.80377 -37.9517 466.468 -0.0303669 0.542685 -0.839387
5.02357 -37.9893 466.442 -0.0224898 0.552854 -0.832975
5.24585 -38.0262 466.409 -0.0522899 0.556124 -0.829453
5.47904 -38.0606 466.345 -0.0207027 0.570351 -0.82114
5.68737 -38.1007 466.351 0.0641069 0.596784 -0.799837
5.89971 -38.1398 466.344 0.122261 0.619374 -0.775518
6.10791 -38.181 466.349 0.0956571 0.60524 -0.790275
6.32867 -38.217 466.32 0.026491 0.559823 -0.828189
6.54854 -38.2543 466.292 0.0334659 0.519066 -0.854079
6.75896 -38.2938 466.29 0.104895 0.527509 -0.843049
6.96713 -38.3338 466.295 0.17157 0.550346 -0.817119
7.16733 -38.3757 466.322 0.112651 0.551267 -0.826689
7.38909 -38.4124 466.288 0.112455 0.56101 -0.820135
7.59218 -38.4535 466.306 0.237286 0.539122 -0.80811
7.78832 -38.4963 466.344 0.168786 0.526788 -0.83307
7.98662 -38.5386 466.376 0.173069 0.585557 -0.791941
8.18691 -38.5803 466.401 0.261236 0.606688 -0.75079
8.38397 -38.6229 466.437 0.205553 0.586808 -0.783202
8.594 -38.6623 466.435 0.219913 0.5766 -0.786874
8.78852 -38.7054 466.477 0.273875 0.570627 -0.774194
8.98563 -38.7479 466.511 0.314917 0.558032 -0.767742
9.1725 -38.7928 466.575 0.376534 0.552958 -0.743276
9.35606 -38.8386 466.648 0.3751 0.566137 -0.734023
9.54307 -38.8835 466.711 0.291174 0.568128 -0.769707
9.7451 -38.9248 466.732 0.243062 0.57448 -0.781597
9.9416 -38.9674 466.768 0.307664 0.57079 -0.761276
10.1331 -39.0112 466.818 0.378265 0.54539 -0.747974
10.3199 -39.0561 466.881 0.389667 0.536099 -0.748838
10.5078 -39.1009 466.942 0.350309 0.539602 -0.76558
10.6947 -39.1458 467.006 0.351971 0.565893 -0.745575
10.8817 -39.1907 467.068 0.394061 0.580511 -0.712547
11.0688 -39.2357 467.132 0.483092 0.552181 -0.679498
11.2501 -39.2821 467.211 0.560028 0.48141 -0.67425
11.4143 -39.3327 467.34 0.539905 0.473871 -0.695665
11.5881 -39.381 467.442 0.478909 0.516369 -0.709935
11.7721 -39.4266 467.514 0.45152 0.543895 -0.707325
11.9571 -39.4722 467.583 0.543151 0.512488 -0.665089
12.1202 -39.5231 467.716 0.563501 0.44849 -0.693775
12.2973 -39.5707 467.808 0.462 0.437242 -0.771606
12.4781 -39.6172 467.89 0.425233 0.475827 -0.769913
12.6585 -39.6639 467.973 0.462468 0.528233 -0.712105
12.8358 -39.7114 468.065 0.628197 0.497445 -0.598262
12.9842 -39.762 468.241 0.744924 0.435814 -0.505129
13.131 -39.8216 468.423 0.711428 0.451843 -0.538246
13.2968 -39.8721 468.549 0.631311 0.468041 -0.618372
13.4688 -39.9211 468.657 0.548601 0.503207 -0.667697
13.6529 -39.9669 468.729 0.619804 0.49621 -0.607962
13.7962 -40.0234 468.922 0.645887 0.458276 -0.610584
13.9732 -40.0713 469.017 0.495168 0.523324 -0.693499
14.1545 -40.1175 469.097 0.536969 0.560511 -0.630469
14.3159 -40.1695 469.237 0.716282 0.468432 -0.517215
14.4577 -40.2265 469.436 0.816314 0.396854 -0.419688
14.5872 -40.2896 469.671 0.83163 0.415917 -0.367973
14.7134 -40.348 469.917 0.787707 0.445212 -0.425798
14.8726 -40.4006 470.065 0.683336 0.464064 -0.563645
15.0474 -40.4491 470.167 0.683898 0.426863 -0.591668
15.1947 -40.5081 470.351 0.73248 0.388624 -0.558967
15.3517 -40.5582 470.505 0.719268 0.397594 -0.569713
15.5087 -40.6115 470.661 0.730987 0.399387 -0.553307
15.6495 -40.6692 470.865 0.813128 0.369909 -0.449433
15.7801 -40.7297 471.1 0.874853 0.331549 -0.353139
15.9033 -40.7923 471.359 0.93269 0.269474 -0.239735
15.9921 -40.8696 471.722 0.911439 0.299379 -0.282226
16.1274 -40.9244 471.944 0.774231 0.418061 -0.475176
16.2833 -40.9775 472.105 0.757464 0.404257 -0.512665
16.435 -41.0326 472.279 0.78799 0.338406 -0.514348
16.5784 -41.0902 472.478 0.843868 0.319963 -0.430709
16.7025 -41.1529 472.737 0.899561 0.308289 -0.309431
16.8094 -41.2205 473.048 0.93238 0.284107 -0.223496
16.8995 -41.2927 473.411 0.904609 0.348505 -0.24541
17.0173 -41.3575 473.691 0.836383 0.435523 -0.332842
17.1549 -41.4137 473.909 0.858035 0.393924 -0.329545
17.2838 -41.4789 474.157 0.937952 0.256687 -0.233146
17.3608 -41.5552 474.563 0.974551 0.158082 -0.158934
17.4363 -41.6321 474.975 0.978418 0.161634 -0.128735
17.5081 -41.7101 475.399 0.973409 0.169759 -0.153808
17.5924 -41.7848 475.786 0.974015 0.144346 -0.174524
17.6454 -41.8684 476.27 0.97622 0.186685 -0.110194
17.7257 -41.9446 476.67 0.985195 0.148037 -0.0864611
17.7869 -42.0262 477.131 0.994051 0.0891521 -0.0625585
17.8026 -42.1208 477.734 0.984521 0.169663 -0.0439766
-0.0901515 -37.1132 468.41 -0.397886 0.499171 -0.76975
0.192301 -37.1379 468.222 -0.393454 0.467623 -0.791532
0.440731 -37.1701 468.125 -0.341691 0.508754 -0.7902
0.704461 -37.1988 467.985 -0.337321 0.51095 -0.790661
0.967869 -37.2275 467.847 -0.347062 0.484936 -0.802736
1.22513 -37.2575 467.724 -0.342742 0.4844 -0.804913
1.48395 -37.2871 467.597 -0.324468 0.518215 -0.791311
1.73709 -37.3179 467.484 -0.247538 0.563533 -0.788134
1.98071 -37.3507 467.397 -0.244045 0.537865 -0.806934
2.23706 -37.3806 467.275 -0.29079 0.493579 -0.819647
2.48366 -37.4113 467.181 -0.207358 0.548011 -0.810362
2.71739 -37.4476 467.118 -0.163852 0.568424 -0.806255
2.95976 -37.4804 467.033 -0.234451 0.522213 -0.819955
3.21149 -37.5111 466.922 -0.162035 0.537821 -0.827341
3.42965 -37.5494 466.903 -0.105466 0.533443 -0.839235
3.66962 -37.5826 466.823 -0.143061 0.513029 -0.846365
3.89331 -37.6195 466.788 -0.129894 0.522047 -0.842967
4.12719 -37.6541 466.724 -0.119354 0.553453 -0.824284
4.35713 -37.6892 466.671 -0.0974858 0.584929 -0.805205
4.5903 -37.7241 466.609 -0.048844 0.579537 -0.813481
4.81132 -37.7614 466.58 -0.0204017 0.53419 -0.845118
5.03412 -37.7971 466.547 -0.0269067 0.516806 -0.85568
5.25345 -37.8368 466.521 -0.03818 0.54505 -0.837534
5.46924 -37.8745 466.506 0.0128999 0.562839 -0.826466
5.68524 -37.9129 466.49 0.0949418 0.57296 -0.814066
5.89377 -37.953 466.494 0.0903038 0.570435 -0.816363
6.11111 -37.991 466.474 0.017914 0.542217 -0.840048
6.33362 -38.0267 466.44 -0.0307048 0.524226 -0.851026
6.55458 -38.0648 466.409 0.0596944 0.569176 -0.820046
6.75911 -38.1058 466.424 0.156633 0.617479 -0.770834
6.96171 -38.1471 466.444 0.172694 0.597717 -0.782887
7.16991 -38.1871 466.449 0.129991 0.576705 -0.806544
7.37173 -38.2286 466.471 0.107102 0.589158 -0.800888
7.5852 -38.2674 466.46 0.216691 0.597001 -0.772421
7.77663 -38.3113 466.512 0.256155 0.59862 -0.758972
7.98182 -38.352 466.524 0.217216 0.56465 -0.796234
8.18037 -38.3942 466.555 0.213993 0.534899 -0.817367
8.38689 -38.4345 466.563 0.183568 0.511199 -0.83963
8.584 -38.477 466.598 0.21742 0.530374 -0.81941
