18.085 -45.7564 473.285 0.969011 0.189277 -0.158722
18.1309 -45.8874 473.434 0.976547 0.147612 -0.15674
18.1565 -46.0123 473.591 0.983656 0.161257 -0.080104
18.1905 -46.1398 473.745 0.979072 0.189836 -0.0733524
18.2377 -46.2708 473.893 0.98174 0.184881 -0.0447808
18.2634 -46.396 474.05 0.991238 0.126955 -0.0364746
18.2886 -46.5209 474.207 0.993848 0.0822815 -0.0741296
18.3034 -46.6432 474.369 0.993719 0.0813858 -0.0768031
18.3281 -46.7679 474.526 0.990656 0.127996 -0.0470824
18.3531 -46.8928 474.683 0.990595 0.135824 0.016511
18.3446 -47.0086 474.854 0.992488 0.118878 0.0288894
18.3694 -47.1335 475.011 0.991135 0.131629 -0.0180295
18.3945 -47.2583 475.168 0.99431 0.106074 -0.00979745
18.3946 -47.3766 475.335 0.997687 0.0494126 0.0466836
18.4082 -47.4984 475.497 0.999614 0.0224331 0.0163684
18.4008 -47.6148 475.667 0.998024 0.0627677 0.00291851
18.4037 -47.7332 475.833 0.995739 0.056199 0.0731124
18.3829 -47.846 476.009 0.988705 -0.0267072 0.147473
18.3508 -47.9554 476.189 0.998314 -0.034008 0.0470338
18.3669 -48.078 476.35 0.99823 -0.0156077 0.0573805
18.3175 -48.1827 476.537 0.983815 0.00432519 0.179137
18.2577 -48.2846 476.729 0.983116 0.0769458 0.166017
18.2737 -48.4073 476.89 0.982804 0.0256082 0.182867
18.26 -48.5219 477.062 0.991142 -0.0285028 0.129711
18.2482 -48.637 477.235 0.990333 -0.070451 0.119489
18.1602 -48.7314 477.438 0.956938 -0.125958 0.261541
18.0765 -48.8271 477.639 0.939957 -0.111467 0.322578
18.0057 -48.9264 477.835 0.970162 -0.0971458 0.222144
17.9776 -49.0372 478.014 0.990514 -0.0729224 0.11647
17.9406 -49.1457 478.197 0.997515 -0.00292662 0.070392
17.9405 -49.2642 478.365 0.988575 -0.0331828 0.147031
17.8974 -49.371 478.55 0.947427 -0.0989152 0.304298
17.8088 -49.4623 478.755 0.921053 -0.112879 0.37272
17.6978 -49.5527 478.967 0.899374 -0.165182 0.404774
17.571 -49.6496 479.181 0.892225 -0.162955 0.421166
17.4574 -49.7253 479.401 0.920366 -0.11246 0.374539
17.409 -49.833 479.588 0.957976 -0.109134 0.265278
17.341 -49.9335 479.784 0.976253 -0.108248 0.187651
17.2978 -50.0408 479.97 0.963816 -0.101989 0.246285
17.2026 -50.1318 480.178 0.922317 -0.149595 0.356305
17.1128 -50.2258 480.383 0.801016 -0.291534 0.522858
16.8382 -50.2747 480.662 0.788807 -0.28971 0.54208
16.6968 -50.3602 480.887 0.871162 -0.158802 0.464606
16.5618 -50.4405 481.112 0.877012 -0.146472 0.457597
16.4475 -50.5279 481.328 0.890289 -0.188363 0.414613
16.3309 -50.6161 481.545 0.893931 -0.228901 0.385346
16.2221 -50.7011 481.76 0.908218 -0.22654 0.351881
16.1424 -50.8029 481.96 0.82786 -0.323363 0.458349
15.8794 -50.8543 482.237 0.688455 -0.395927 0.607677
15.5703 -50.8919 482.533 0.694499 -0.394604 0.60163
15.3704 -50.9586 482.785 0.829641 -0.343614 0.440028
15.2837 -51.0553 482.99 0.824913 -0.344697 0.447999
15.0439 -51.1116 483.258 0.799883 -0.320835 0.5072
14.874 -51.1866 483.498 0.777076 -0.2872 0.560062
14.5934 -51.2325 483.784 0.677134 -0.311328 0.666756
14.2445 -51.2607 484.098 0.661177 -0.326808 0.675308
13.9781 -51.3107 484.379 0.678292 -0.336915 0.652999
13.6238 -51.3379 484.696 0.655299 -0.336849 0.676103
13.2822 -51.3686 485.008 0.619733 -0.355051 0.699907
12.8267 -51.3696 485.368 0.574792 -0.383936 0.72264
12.3058 -51.3539 485.756 0.586129 -0.345864 0.732688
12.6085 -39.0505 468.485 0.553775 0.537539 -0.635913
12.8724 -39.246 468.554 0.616737 0.528688 -0.583202
13.0911 -39.4282 468.64 0.651809 0.510005 -0.561285
13.3083 -39.6098 468.726 0.626428 0.491511 -0.604983
13.5443 -39.7968 468.805 0.628872 0.487631 -0.605587
13.7567 -39.9769 468.893 0.63242 0.491686 -0.598573
13.9794 -40.1598 468.976 0.671712 0.471157 -0.571677
14.1553 -40.3292 469.078 0.711555 0.438278 -0.549183
14.3634 -40.5077 469.167 0.663931 0.42071 -0.618222
14.5496 -40.6798 469.264 0.725545 0.406152 -0.55554
14.7009 -40.8418 469.374 0.732327 0.433128 -0.525449
14.8926 -41.0153 469.469 0.702167 0.485878 -0.520466
15.088 -41.1898 469.562 0.755564 0.476332 -0.449702
15.2147 -41.3445 469.682 0.782619 0.436483 -0.443835
15.3912 -41.5134 469.782 0.77683 0.422861 -0.466609
15.5427 -41.6736 469.893 0.77168 0.414211 -0.482637
15.6892 -41.8353 470.003 0.74979 0.429024 -0.503739
15.8564 -42.0013 470.106 0.781867 0.441692 -0.439991
16.005 -42.1617 470.217 0.854523 0.378869 -0.355317
16.1219 -42.3135 470.339 0.898997 0.282992 -0.334246
16.1942 -42.4523 470.479 0.891306 0.278063 -0.358127
16.2948 -42.5991 470.608 0.841377 0.339519 -0.420491
16.4306 -42.7559 470.723 0.826465 0.36854 -0.425599
16.5612 -42.9111 470.84 0.835558 0.35275 -0.4212
16.6753 -43.0609 470.964 0.842008 0.346161 -0.413757
16.8013 -43.2154 471.082 0.871867 0.33456 -0.357656
16.896 -43.3604 471.213 0.885596 0.310916 -0.345038
17.0056 -43.5094 471.337 0.873273 0.324094 -0.36381
17.1086 -43.6566 471.465 0.914768 0.310031 -0.258999
17.1564 -43.7882 471.613 0.931508 0.296144 -0.211168
17.2649 -43.9368 471.738 0.891639 0.32123 -0.319047
17.3827 -44.088 471.86 0.89036 0.303754 -0.339107
17.4537 -44.226 471.999 0.874297 0.336307 -0.350003
17.5756 -44.3783 472.119 0.898886 0.318302 -0.301146
17.6719 -44.5234 472.249 0.948432 0.206283 -0.240675
17.7031 -44.6501 472.404 0.964589 0.189415 -0.183547
17.7559 -44.783 472.55 0.974375 0.195205 -0.111755
17.8181 -44.9184 472.693 0.975472 0.178789 -0.128407
17.8443 -45.0436 472.85 0.969328 0.199036 -0.14418
17.8835 -45.1727 473.002 0.975817 0.177856 -0.127077
17.9113 -45.2984 473.158 0.964706 0.198931 -0.172537
17.9936 -45.4394 473.293 0.929305 0.275895 -0.245507
18.0957 -45.5859 473.42 0.95864 0.234319 -0.161567
18.1214 -45.711 473.577 0.985784 0.154434 -0.0661746
18.1451 -45.8356 473.735 0.990549 0.109118 -0.0831012
18.1696 -45.9606 473.892 0.986784 0.103664 -0.124548
18.1951 -46.0856 474.049 0.978319 0.170442 -0.11765
18.2595 -46.2215 474.191 0.979755 0.188243 -0.0681518
18.285 -46.3465 474.348 0.987853 0.154058 -0.020308
18.3102 -46.4719 474.506 0.993137 0.114226 0.025122
18.2845 -46.5821 474.682 0.992966 0.117715 0.0127338
18.3096 -46.7076 474.84 0.990485 0.137272 0.00977305
18.3295 -46.831 474.999 0.992943 0.118591 -4.14338e-005
18.3517 -46.9554 475.157 0.991149 0.124963 -0.0448114
18.3709 -47.0786 475.317 0.990388 0.138269 0.00360875
18.3926 -47.2028 475.476 0.990403 0.128836 0.0500302
18.3866 -47.3193 475.645 0.988733 0.106828 0.104853
18.365 -47.4315 475.821 0.988059 0.119391 0.0973886
18.3815 -47.5542 475.982 0.993228 0.0894735 0.0741183
18.3751 -47.6706 476.152 0.99271 0.0498604 0.109734
18.381 -47.7904 476.317 0.990332 0.0513135 0.128875
18.324 -47.8931 476.507 0.980611 0.013933 0.19547
18.276 -47.9982 476.694 0.973472 -0.0121252 0.228485
18.2539 -48.1104 476.87 0.996669 0.00660935 0.0812819
18.2665 -48.2322 477.033 0.99845 -0.0201261 0.0518978
18.2065 -48.3341 477.224 0.992492 0.0309096 0.118342
18.2229 -48.457 477.385 0.969696 0.0391015 0.241167
18.1403 -48.5528 477.586 0.935799 -0.0591752 0.347532
18.0731 -48.653 477.781 0.956363 -0.0720647 0.283155
18.0348 -48.7611 477.964 0.978523 -0.0303653 0.203887
18.0049 -48.8714 478.144 0.984813 -0.032547 0.170541
17.9595 -48.9776 478.33 0.994314 -0.000318116 0.106489
17.9667 -49.0981 478.495 0.9761 -0.0372527 0.214106
17.8234 -49.1779 478.721 0.933029 -0.0889613 0.34863
17.7585 -49.2818 478.913 0.926904 -0.102788 0.360949
17.6611 -49.371 479.122 0.893553 -0.159307 0.419744
17.5304 -49.4571 479.342 0.890788 -0.165174 0.423337
17.4256 -49.5454 479.554 0.947022 -0.133605 0.292059
17.392 -49.6551 479.736 0.970187 -0.0631829 0.233979
17.3322 -49.7579 479.928 0.963341 -0.0627254 0.260846
17.2685 -49.8633 480.121 0.95228 -0.135141 0.273678
17.1871 -49.9566 480.324 0.915337 -0.179605 0.360416
17.0524 -50.0396 480.548 0.796515 -0.270858 0.540555
16.79 -50.0884 480.823 0.776402 -0.278406 0.565412
16.6378 -50.1669 481.054 0.869416 -0.188967 0.456516
16.5235 -50.2554 481.27 0.903737 -0.172449 0.391817
16.448 -50.3545 481.47 0.908724 -0.218321 0.355747
16.3348 -50.4478 481.683 0.897168 -0.274911 0.345708
16.2345 -50.5378 481.894 0.906233 -0.255873 0.336557
16.1073 -50.6216 482.116 0.810445 -0.265321 0.522286
15.8569 -50.6746 482.388 0.701302 -0.340128 0.626488
15.58 -50.7206 482.672 0.725171 -0.373423 0.578517
15.3923 -50.7905 482.918 0.833819 -0.305741 0.45964
15.2356 -50.8686 483.152 0.810439 -0.283106 0.512874
15.0016 -50.9265 483.419 0.776496 -0.293364 0.557667
14.8135 -50.9966 483.666 0.740619 -0.273693 0.613658
14.4723 -51.0265 483.977 0.67545 -0.322787 0.663005
14.1974 -51.074 484.261 0.668664 -0.347509 0.657363
13.829 -51.0971 484.584 0.673685 -0.308649 0.67148
13.5471 -51.1432 484.871 0.651586 -0.324226 0.685793
13.1459 -51.1582 485.208 0.612458 -0.36908 0.699053
12.781 -51.1829 485.531 0.566153 -0.425961 0.705711
12.2211 -51.1567 485.935 0.588293 -0.412634 0.695445
11.8272 -51.1743 486.27 0.571405 -0.390231 0.721953
12.6091 -38.8741 468.624 0.561442 0.519409 -0.644203
12.8416 -39.0605 468.705 0.611619 0.521474 -0.594968
13.0739 -39.2468 468.785 0.618336 0.498451 -0.607624
13.3243 -39.4382 468.859 0.621054 0.483895 -0.616553
13.5239 -39.6148 468.952 0.633845 0.486348 -0.601421
13.7577 -39.8011 469.031 0.636024 0.502036 -0.586031
13.9758 -39.9829 469.117 0.670993 0.495902 -0.551226
14.1813 -40.1608 469.207 0.679167 0.465646 -0.567367
14.3839 -40.3379 469.298 0.686314 0.422527 -0.591983
14.5446 -40.5027 469.405 0.75007 0.389445 -0.534534
14.6926 -40.6638 469.516 0.757753 0.397408 -0.517568
14.839 -40.8244 469.628 0.719173 0.461181 -0.519714
15.0284 -40.9973 469.724 0.738508 0.493018 -0.459934
15.2187 -41.1704 469.819 0.769615 0.456435 -0.446498
15.3623 -41.3299 469.932 0.767549 0.431583 -0.473924
15.5236 -41.4925 470.039 0.774602 0.4303 -0.463502
15.6852 -41.6606 470.142 0.781774 0.420471 -0.460471
15.8159 -41.814 470.261 0.779053 0.431024 -0.455296
15.9823 -41.9803 470.365 0.822979 0.427777 -0.373781
16.0866 -42.1286 470.492 0.890774 0.37692 -0.253877
16.1886 -42.2759 470.62 0.8981 0.351063 -0.264899
16.2955 -42.426 470.745 0.855675 0.356557 -0.375083
16.4198 -42.5796 470.865 0.820419 0.368711 -0.436995
16.5573 -42.7344 470.981 0.835654 0.356064 -0.418212
16.6755 -42.8877 471.102 0.854509 0.325378 -0.404899
16.7798 -43.0349 471.229 0.863458 0.313988 -0.394782
16.8998 -43.187 471.35 0.883754 0.297018 -0.361607
16.9823 -43.3285 471.485 0.898245 0.280362 -0.338457
17.065 -43.47 471.62 0.922691 0.291043 -0.252855
17.1582 -43.6144 471.752 0.913536 0.286633 -0.288607
17.2564 -43.7602 471.881 0.87609 0.300361 -0.377159
17.3522 -43.9053 472.011 0.900133 0.333909 -0.279759
17.4444 -44.0493 472.142 0.882375 0.367747 -0.293559
17.5735 -44.2037 472.259 0.874589 0.335836 -0.349726
17.6545 -44.3445 472.394 0.955958 0.202222 -0.212722
17.688 -44.472 472.549 0.977759 0.153978 -0.142403
17.74 -44.6046 472.695 0.97001 0.191795 -0.149315
17.7683 -44.7306 472.851 0.973419 0.209892 -0.0916616
17.8203 -44.8632 472.998 0.963648 0.242051 -0.113114
17.905 -45.0049 473.132 0.972137 0.196936 -0.127149
17.9374 -45.132 473.287 0.969738 0.158131 -0.186016
17.994 -45.2658 473.432 0.936875 0.23672 -0.257349
18.045 -45.3981 473.579 0.956049 0.252105 -0.149708
18.0982 -45.5309 473.725 0.973805 0.211821 -0.0826791
18.1595 -45.666 473.868 0.984482 0.149278 -0.0922544
18.1849 -45.7911 474.025 0.994968 0.0744519 -0.0670413
18.1894 -45.9104 474.191 0.989017 0.0977594 -0.11085
18.2147 -46.0355 474.348 0.983545 0.156312 -0.0905898
18.2371 -46.1595 474.506 0.984663 0.174319 -0.00714563
18.2568 -46.2835 474.666 0.987847 0.149041 0.0441136
18.2815 -46.4083 474.823 0.99447 0.102909 0.0209687
18.2935 -46.5296 474.986 0.994008 0.0948915 -0.0542542
18.3186 -46.6545 475.143 0.99433 0.0906114 -0.0556482
18.3321 -46.7765 475.305 0.996292 0.0845552 -0.0159103
18.3289 -46.8938 475.473 0.994781 0.101641 0.00893069
18.3349 -47.0136 475.638 0.994295 0.0933705 0.0515715
18.3234 -47.1286 475.81 0.993079 0.0751617 0.0902521
18.3359 -47.2503 475.973 0.992828 0.113432 0.0377545
18.3584 -47.3745 476.131 0.993567 0.0923981 0.0654735
18.3256 -47.4838 476.311 0.992751 0.0310491 0.116108
18.2916 -47.593 476.493 0.984117 0.0718649 0.162322
18.2936 -47.7112 476.659 0.976828 0.0361312 0.210953
18.2558 -47.8196 476.842 0.991883 -0.0136687 0.126415
18.2672 -47.9406 477.005 0.999227 0.0162128 0.035824
18.2487 -48.0541 477.18 0.988859 -0.0450283 0.141879
18.1914 -48.1568 477.37 0.979368 -0.0310909 0.19968
18.1286 -48.2581 477.563 0.972813 0.0176854 0.230915
18.0902 -48.366 477.746 0.953325 -0.0343623 0.299985
18.02 -48.4654 477.943 0.962334 -0.0605235 0.265049
17.9589 -48.5672 478.135 0.980548 0.00620862 0.196181
17.9452 -48.682 478.308 0.98128 0.0343182 0.189502
17.9103 -48.7911 478.49 0.980613 0.0477947 0.190034
17.8656 -48.8975 478.676 0.954717 -0.00036723 0.297515
17.8068 -48.9974 478.869 0.934779 -0.113811 0.336505
17.7359 -49.0996 479.065 0.92759 -0.165543 0.334921
17.6067 -49.1834 479.285 0.894233 -0.171223 0.413557
17.4992 -49.2761 479.496 0.916984 -0.154002 0.368001
17.4459 -49.3775 479.687 0.942651 -0.145209 0.300539
17.3217 -49.4631 479.906 0.966477 -0.103367 0.235029
17.3094 -49.5759 480.08 0.977454 -0.0968673 0.187616
17.2601 -49.684 480.267 0.944157 -0.159485 0.288326
17.1437 -49.7688 480.485 0.887826 -0.17966 0.423659
16.9898 -49.8493 480.715 0.792432 -0.241069 0.560301
16.7563 -49.9059 480.979 0.787334 -0.253538 0.561982
16.6049 -49.9844 481.209 0.88357 -0.199804 0.423535
16.5241 -50.0806 481.412 0.925242 -0.196656 0.324428
16.4245 -50.1733 481.622 0.926114 -0.213705 0.310873
16.3481 -50.273 481.821 0.899347 -0.224338 0.375297
16.1893 -50.3461 482.057 0.860568 -0.23161 0.453628
16.0066 -50.4211 482.3 0.796948 -0.23828 0.555064
15.7907 -50.4832 482.558 0.735629 -0.276825 0.618237
15.5405 -50.5362 482.83 0.752766 -0.283739 0.593999
15.3326 -50.6007 483.085 0.816771 -0.254528 0.517784
15.1801 -50.6799 483.318 0.79936 -0.274296 0.53459
14.965 -50.7427 483.576 0.746323 -0.313477 0.58714
14.6672 -50.7838 483.869 0.727006 -0.318977 0.608042
14.4834 -50.8551 484.115 0.680746 -0.341747 0.647915
14.0804 -50.8688 484.453 0.658072 -0.323366 0.679982
13.787 -50.9116 484.745 0.666971 -0.332708 0.666674
13.4458 -50.942 485.057 0.635906 -0.417103 0.649345
13.118 -50.9761 485.364 0.626265 -0.422031 0.655501
12.8114 -51.016 485.662 0.640532 -0.408323 0.650378
12.1462 -50.962 486.11 0.581668 -0.478275 0.657963
11.7526 -50.9795 486.446 0.563777 -0.480753 0.671589
12.3505 -38.5031 468.692 0.589875 0.504726 -0.630317
12.5743 -38.6873 468.776 0.580109 0.512834 -0.63283
12.8518 -38.8869 468.84 0.591162 0.516363 -0.619594
13.0917 -39.0755 468.917 0.607077 0.500498 -0.617219
13.3095 -39.2576 469.003 0.638303 0.50905 -0.577441
13.531 -39.4406 469.088 0.650413 0.487513 -0.58249
13.7305 -39.6171 469.18 0.637261 0.474792 -0.607018
13.9473 -39.7986 469.266 0.643601 0.486889 -0.590523
14.1709 -39.9819 469.35 0.646258 0.469897 -0.601288
14.3877 -40.1631 469.435 0.697413 0.43081 -0.572729
14.5526 -40.3293 469.54 0.763378 0.394571 -0.511437
14.7075 -40.4925 469.649 0.788055 0.371991 -0.490502
14.8409 -40.6494 469.766 0.750447 0.403047 -0.523816
15.0222 -40.82 469.865 0.710273 0.445357 -0.545132
15.1911 -40.987 469.968 0.746003 0.462035 -0.479586
15.3669 -41.1559 470.069 0.772794 0.440448 -0.456941
15.5135 -41.3164 470.18 0.769477 0.425126 -0.476626
15.6719 -41.4821 470.285 0.789985 0.422943 -0.443895
15.8146 -41.6391 470.4 0.803473 0.393036 -0.447162
15.9378 -41.7928 470.52 0.835599 0.373914 -0.402446
16.0497 -41.9431 470.645 0.878168 0.364956 -0.309237
16.157 -42.092 470.771 0.868472 0.379864 -0.318527
16.2865 -42.2488 470.887 0.84239 0.390936 -0.370875
16.4219 -42.404 471.004 0.824009 0.387274 -0.413555
16.5514 -42.559 471.121 0.827981 0.370517 -0.420909
16.6824 -42.7145 471.238 0.853619 0.330596 -0.402544
16.7941 -42.8637 471.363 0.866365 0.304637 -0.395736
16.8963 -43.0115 471.49 0.885151 0.304466 -0.351864
16.9973 -43.1583 471.618 0.925815 0.251132 -0.282487
17.0502 -43.2914 471.765 0.909696 0.250932 -0.330887
17.1729 -43.4442 471.885 0.892788 0.293546 -0.341702
17.2486 -43.5837 472.023 0.918968 0.281866 -0.275772
17.3146 -43.7204 472.164 0.90866 0.331689 -0.253611
17.4177 -43.8679 472.291 0.852567 0.399337 -0.337136
17.5685 -44.0282 472.4 0.865265 0.361657 -0.347161
17.656 -44.1709 472.533 0.955379 0.247724 -0.160882
17.6907 -44.2987 472.686 0.978609 0.192694 -0.0720611
17.7166 -44.424 472.844 0.978554 0.192246 -0.0739903
17.7575 -44.5536 472.995 0.976487 0.199186 -0.0824542
17.7928 -44.6815 473.148 0.951688 0.261025 -0.161725
17.8665 -44.8202 473.287 0.948751 0.28319 -0.14027
17.9218 -44.9538 473.432 0.96457 0.252873 -0.0752317
17.9612 -45.0828 473.584 0.959695 0.250273 -0.127861
18.0309 -45.2204 473.724 0.960448 0.231485 -0.154771
18.0795 -45.352 473.872 0.962713 0.219702 -0.157842
18.1336 -45.4851 474.018 0.972522 0.210545 -0.0993572
18.1667 -45.6124 474.172 0.98633 0.164573 -0.00831492
18.1919 -45.7374 474.329 0.992676 0.12036 -0.0103872
18.2032 -45.859 474.492 0.993714 0.107962 -0.0295937
18.2168 -45.9805 474.654 0.993118 0.110862 -0.0377717
18.2405 -46.1054 474.812 0.991286 0.120112 -0.0540822
18.2672 -46.2308 474.968 0.992365 0.113983 -0.0471133
18.291 -46.3554 475.126 0.991718 0.122596 -0.0382907
18.316 -46.4804 475.283 0.993031 0.117697 -0.00605273
18.3143 -46.5982 475.452 0.996024 0.0853575 0.02552
18.3299 -46.7206 475.613 0.998217 0.0591998 0.00767521
18.3349 -46.8402 475.778 0.998717 0.0408816 0.0298671
18.3347 -46.9583 475.945 0.998663 0.0208116 0.0473204
18.3115 -47.0701 476.122 0.9985 0.0546632 -0.0032412
18.3281 -47.1929 476.283 0.994216 0.0963126 0.0475155
18.3361 -47.3133 476.447 0.982856 0.0087654 0.184169
18.2633 -47.4116 476.644 0.992979 -0.0116323 0.117717
18.2793 -47.5342 476.805 0.997412 0.0120873 0.0708766
18.2559 -47.6461 476.982 0.993546 0.0288758 0.109697
18.2421 -47.7606 477.155 0.990508 0.0839901 0.108807
18.2271 -47.8749 477.329 0.97398 0.000834434 0.226632
18.1462 -47.9711 477.529 0.964959 -0.0556613 0.256431
18.121 -48.0827 477.707 0.976862 -0.0400236 0.210093
18.0703 -48.1873 477.895 0.970396 -0.0660754 0.232304
18.0204 -48.2921 478.083 0.961524 -0.0674674 0.266307
17.9602 -48.3942 478.275 0.979699 -0.0273143 0.198603
17.934 -48.5056 478.453 0.986259 -0.0389161 0.160557
17.8733 -48.6077 478.646 0.982586 -0.0803097 0.167556
17.8528 -48.7207 478.822 0.979857 -0.0742568 0.185382
17.804 -48.826 479.01 0.949256 -0.12091 0.290332
17.6898 -48.9093 479.226 0.908151 -0.170149 0.382507
17.5816 -49.0032 479.436 0.902074 -0.179184 0.392626
17.4855 -49.0979 479.643 0.931243 -0.166897 0.323931
17.3905 -49.1891 479.851 0.945649 -0.108143 0.30668
17.3597 -49.2996 480.031 0.97173 -0.0644759 0.227122
17.323 -49.4086 480.215 0.972752 -0.0817563 0.216953
17.2177 -49.4991 480.426 0.915159 -0.130327 0.381443
17.0873 -49.583 480.648 0.859047 -0.184998 0.477298
16.9138 -49.6554 480.887 0.796981 -0.217626 0.563436
16.7014 -49.7175 481.143 0.817994 -0.200774 0.539051
16.5941 -49.8079 481.356 0.909012 -0.185401 0.373262
16.5111 -49.9073 481.557 0.930876 -0.220353 0.2914
16.4277 -50.0022 481.761 0.914264 -0.208686 0.347235
16.284 -50.0848 481.988 0.88103 -0.178088 0.438259
16.1534 -50.1671 482.212 0.827634 -0.220837 0.515997
15.9506 -50.2324 482.465 0.779945 -0.269236 0.564976
15.7265 -50.2922 482.726 0.744227 -0.299273 0.597128
15.4691 -50.3433 483.002 0.77265 -0.26085 0.578765
15.3275 -50.4253 483.23 0.817778 -0.246573 0.520039
15.1256 -50.4914 483.483 0.795488 -0.243804 0.554759
14.913 -50.5533 483.741 0.747504 -0.254952 0.613381
14.6791 -50.6126 484.007 0.715801 -0.330472 0.615156
14.3438 -50.6439 484.316 0.656106 -0.373844 0.655565
13.9714 -50.6655 484.641 0.670679 -0.294345 0.680845
13.7418 -50.724 484.907 0.704529 -0.278375 0.652798
13.4643 -50.7721 485.192 0.628072 -0.442663 0.63998
13.0537 -50.7843 485.534 0.586365 -0.476008 0.655433
12.5563 -50.7739 485.912 0.585788 -0.457382 0.669069
12.1704 -50.7931 486.244 0.590267 -0.441889 0.675514
11.7556 -50.805 486.589 0.577487 -0.443058 0.685718
12.3568 -38.3281 468.829 0.598008 0.516156 -0.613163
12.5781 -38.5116 468.914 0.581616 0.497947 -0.643251
12.8426 -38.7076 468.982 0.575592 0.49814 -0.648499
13.0582 -38.8892 469.069 0.627072 0.494822 -0.601608
13.2861 -39.0744 469.151 0.624365 0.511049 -0.590759
13.5346 -39.2653 469.226 0.636613 0.499253 -0.587768
13.7507 -39.4468 469.312 0.652286 0.476204 -0.589706
13.9624 -39.6268 469.4 0.62124 0.466143 -0.629897
14.1992 -39.8141 469.478 0.636314 0.466446 -0.614437
14.3851 -39.9865 469.575 0.714526 0.464266 -0.523365
14.5512 -40.153 469.68 0.768339 0.429387 -0.474639
14.6986 -40.3142 469.792 0.797507 0.408793 -0.4437
14.8424 -40.4741 469.905 0.763894 0.398463 -0.507636
15.0125 -40.6416 470.008 0.734205 0.392254 -0.554147
15.1619 -40.8031 470.118 0.730843 0.414654 -0.542153
15.3519 -40.9762 470.213 0.748985 0.410034 -0.520475
15.4938 -41.1354 470.327 0.776702 0.40146 -0.485349
15.6555 -41.3001 470.432 0.772225 0.420798 -0.476024
15.8143 -41.4624 470.54 0.811725 0.398135 -0.427306
15.9404 -41.6185 470.658 0.860671 0.333251 -0.384953
16.0347 -41.7637 470.789 0.878941 0.306962 -0.365017
16.1398 -41.9121 470.917 0.855678 0.364957 -0.366908
16.2672 -42.0692 471.033 0.826673 0.404819 -0.390811
16.4009 -42.2221 471.152 0.815047 0.404473 -0.41485
16.5476 -42.3832 471.262 0.819675 0.399801 -0.410234
16.677 -42.5383 471.379 0.848796 0.369769 -0.37791
16.7858 -42.6874 471.504 0.883507 0.331715 -0.330726
16.8755 -42.831 471.637 0.887461 0.348695 -0.301372
16.9876 -42.981 471.761 0.91287 0.329825 -0.240592
17.0688 -43.1222 471.897 0.922878 0.2868 -0.256986
17.1386 -43.2601 472.037 0.908211 0.317041 -0.273199
17.2302 -43.4042 472.169 0.934988 0.316833 -0.15942
17.2795 -43.5362 472.317 0.910871 0.331984 -0.245153
17.4128 -43.6921 472.432 0.829277 0.377479 -0.41208
17.5395 -43.8456 472.55 0.875799 0.336792 -0.345757
17.6008 -43.9812 472.693 0.957748 0.250943 -0.140524
17.6429 -44.1111 472.844 0.972773 0.227591 -0.0437541
17.6879 -44.2419 472.994 0.974573 0.218198 -0.0509624
17.7231 -44.3698 473.147 0.977031 0.19485 -0.0862827
17.7683 -44.5006 473.297 0.964272 0.208457 -0.163482
17.8283 -44.6355 473.441 0.96002 0.203644 -0.192072
17.8689 -44.765 473.592 0.962865 0.207659 -0.172537
17.9531 -44.9067 473.726 0.952304 0.247175 -0.178945
18.0078 -45.0401 473.872 0.956563 0.24407 -0.159424
18.0681 -45.175 474.015 0.970715 0.201767 -0.13039
18.0941 -45.3002 474.172 0.978984 0.181623 -0.0927521
18.1341 -45.4297 474.324 0.981563 0.186057 -0.0437803
18.1595 -45.5548 474.481 0.98654 0.163345 -0.00754322
18.1847 -45.6799 474.639 0.989619 0.143599 -0.0057602
18.21 -45.8051 474.796 0.992476 0.116502 -0.0376625
18.2297 -45.9286 474.955 0.99232 0.103252 -0.0681177
18.2547 -46.0537 475.113 0.994872 0.0880828 -0.0497069
18.2548 -46.1718 475.28 0.994301 0.102291 -0.0300266
18.2759 -46.2958 475.439 0.989322 0.145514 0.00819774
18.2984 -46.4202 475.598 0.987608 0.15346 0.0328685
18.3162 -46.5433 475.758 0.988604 0.136359 0.0637843
18.3013 -46.6574 475.931 0.988803 0.124148 0.0828032
18.3149 -46.7794 476.093 0.993389 0.0811146 0.0812344
18.3076 -46.8955 476.264 0.997882 0.019585 0.062029
18.2882 -47.0084 476.439 0.999559 0.0178168 0.0237488
18.2754 -47.1231 476.612 0.99515 -0.00701963 0.0981161
18.2808 -47.2429 476.777 0.994592 -0.0108824 0.103287
18.2545 -47.354 476.955 0.992377 0.0146331 0.122371
18.2084 -47.4597 477.141 0.986087 0.0276761 0.163908
18.1856 -47.5717 477.318 0.993078 0.0491208 0.106695
18.1856 -47.6901 477.486 0.981765 -0.0138608 0.189593
18.1344 -47.7945 477.674 0.971096 -0.0638303 0.229995
18.0857 -47.8996 477.861 0.976529 -0.0212923 0.214331
18.0385 -48.0052 478.048 0.961167 -0.0339476 0.273873
17.9539 -48.1006 478.25 0.962004 -0.0239051 0.271988
17.9228 -48.2106 478.431 0.983513 0.0124741 0.180404
17.9133 -48.3266 478.602 0.991112 -0.0363672 0.127965
17.9011 -48.4418 478.775 0.978405 -0.0616825 0.197277
17.8178 -48.5377 478.977 0.966195 -0.0146985 0.257392
17.7625 -48.6414 479.168 0.936359 -0.0611656 0.345675
17.6583 -48.7286 479.38 0.908318 -0.160672 0.38619
17.5616 -48.8243 479.585 0.915932 -0.197871 0.349164
17.4651 -48.9174 479.793 0.919104 -0.196475 0.341534
17.3647 -49.0086 480.002 0.952116 -0.0968037 0.290007
17.3103 -49.1128 480.193 0.971619 -0.00364501 0.236522
17.2485 -49.215 480.386 0.944111 -0.0326466 0.328006
17.1634 -49.3093 480.59 0.90108 -0.115837 0.417896
17.0421 -49.3972 480.808 0.835984 -0.215838 0.504525
16.8232 -49.4575 481.066 0.797995 -0.265776 0.540895
16.6686 -49.5379 481.297 0.861874 -0.265152 0.432281
16.5898 -49.633 481.499 0.933463 -0.232966 0.272716
16.5251 -49.7348 481.694 0.917165 -0.201042 0.34408
16.3608 -49.8101 481.931 0.881432 -0.166421 0.442021
16.2447 -49.8977 482.148 0.867558 -0.152481 0.473384
16.0853 -49.975 482.382 0.825086 -0.213653 0.523054
15.894 -50.0434 482.63 0.775063 -0.286388 0.563257
15.6755 -50.1046 482.89 0.73739 -0.31664 0.596653
15.4102 -50.1535 483.169 0.788174 -0.269528 0.553295
15.2764 -50.2375 483.394 0.802005 -0.272477 0.531549
15.0037 -50.2862 483.676 0.773723 -0.258398 0.578431
14.8339 -50.3595 483.916 0.771105 -0.24281 0.588591
14.5777 -50.4114 484.192 0.713753 -0.321831 0.622078
14.3366 -50.4675 484.462 0.627249 -0.375183 0.682493
13.8313 -50.4549 484.842 0.67474 -0.318424 0.665832
13.6812 -50.5344 485.075 0.766532 -0.191756 0.61291
13.431 -50.5885 485.35 0.654752 -0.35007 0.669889
13.0336 -50.6041 485.686 0.539542 -0.498929 0.678207
12.5272 -50.5911 486.068 0.539437 -0.474953 0.695289
12.0348 -50.5822 486.445 0.588245 -0.407398 0.698566
12.3395 -38.1461 468.974 0.577014 0.520943 -0.629026
12.5939 -38.3394 469.047 0.569825 0.475899 -0.669939
12.8452 -38.5316 469.12 0.577153 0.458564 -0.675732
13.0775 -38.7182 469.201 0.632808 0.470891 -0.614668
13.2777 -38.8954 469.294 0.611629 0.492529 -0.619133
13.5273 -39.0868 469.367 0.62192 0.497353 -0.60486
13.7235 -39.2626 469.461 0.633001 0.488795 -0.600324
13.9841 -39.457 469.53 0.638129 0.491458 -0.592672
14.1518 -39.6243 469.635 0.685844 0.501134 -0.527715
14.3608 -39.8035 469.723 0.721102 0.489763 -0.490045
14.5331 -39.9708 469.827 0.769389 0.429431 -0.472895
14.6789 -40.1327 469.938 0.768688 0.421965 -0.480692
14.872 -40.307 470.032 0.747146 0.425644 -0.51049
15.0299 -40.4711 470.14 0.756577 0.40844 -0.510655
15.1956 -40.6373 470.244 0.735663 0.406439 -0.541855
15.364 -40.8042 470.348 0.757595 0.402459 -0.513884
15.5023 -40.9624 470.462 0.789496 0.39266 -0.471714
15.6464 -41.1209 470.576 0.773351 0.391775 -0.498438
15.7917 -41.2823 470.687 0.797294 0.410703 -0.442318
15.9392 -41.443 470.798 0.859029 0.365165 -0.35878
16.0351 -41.5888 470.928 0.901925 0.293283 -0.317043
16.1137 -41.7296 471.066 0.861715 0.319596 -0.394089
16.253 -41.8897 471.178 0.813864 0.38047 -0.439169
16.3943 -42.0464 471.292 0.813708 0.399388 -0.422337
16.5192 -42.2013 471.411 0.815842 0.393582 -0.42367
16.6601 -42.3587 471.525 0.848428 0.378641 -0.369867
16.7641 -42.5065 471.652 0.898942 0.326048 -0.292569
16.8423 -42.6469 471.789 0.897567 0.343169 -0.276784
16.9454 -42.7944 471.916 0.89205 0.373119 -0.25501
17.0412 -42.9398 472.047 0.926821 0.3118 -0.209247
17.1069 -43.0766 472.188 0.937625 0.275897 -0.21152
17.1687 -43.2123 472.332 0.923628 0.2952 -0.244476
17.2902 -43.3648 472.452 0.881035 0.344238 -0.324466
17.4037 -43.5161 472.574 0.835133 0.387074 -0.390802
17.5363 -43.6706 472.691 0.903445 0.308542 -0.29764
17.5855 -43.8027 472.839 0.973881 0.173334 -0.146664
17.6161 -43.9294 472.994 0.979569 0.159281 -0.122775
17.6587 -44.0595 473.145 0.97161 0.194441 -0.134786
17.7237 -44.1959 473.286 0.969101 0.211823 -0.126391
17.7707 -44.3272 473.435 0.958031 0.218918 -0.18507
17.853 -44.4685 473.57 0.964534 0.195954 -0.17685
17.8855 -44.5957 473.725 0.970697 0.187842 -0.149877
17.9217 -44.7239 473.878 0.956605 0.221887 -0.188874
17.9853 -44.8598 474.02 0.952375 0.244518 -0.182189
18.055 -44.9974 474.16 0.972415 0.199197 -0.121365
18.0808 -45.1228 474.317 0.986219 0.151442 -0.0666147
18.1087 -45.2485 474.473 0.985116 0.162543 -0.0559067
18.1342 -45.374 474.631 0.987831 0.150403 -0.0396077
18.1596 -45.4991 474.788 0.986849 0.149529 -0.0614082
18.1989 -45.6282 474.94 0.985183 0.167153 -0.0383847
18.2243 -45.7534 475.097 0.984735 0.173662 -0.0117457
18.2496 -45.8785 475.254 0.992562 0.121425 0.00877519
18.2531 -45.9977 475.421 0.998532 0.0516484 0.0163324
18.2422 -46.1128 475.592 0.997798 0.0627469 -0.0215134
18.254 -46.2343 475.755 0.995463 0.0951362 -0.00148836
18.2493 -46.3513 475.924 0.994178 0.0995841 0.0411485
18.2717 -46.4755 476.083 0.995365 0.0954856 0.0114234
18.2895 -46.5989 476.243 0.994785 0.101286 0.011993
18.3068 -46.7216 476.404 0.995847 0.0674866 0.0611094
18.3068 -46.84 476.571 0.997255 0.0281958 0.0684652
18.3052 -46.9578 476.74 0.992203 0.0286165 0.121303
18.2417 -47.0586 476.933 0.979441 0.0661626 0.190572
18.2171 -47.1702 477.11 0.977534 0.0651307 0.200462
18.1963 -47.2831 477.287 0.991908 0.0114638 0.126439
18.2013 -47.4023 477.452 0.997267 -0.0165287 0.0720118
18.1614 -47.51 477.636 0.986955 -0.0533632 0.151897
18.1173 -47.6163 477.821 0.965056 -0.0679897 0.253071
18.0321 -47.7114 478.023 0.969505 -0.0405975 0.241687
18.0077 -47.8232 478.201 0.961399 -0.0582805 0.268913
17.9243 -47.9189 478.403 0.974305 -0.0434883 0.220995
17.9349 -48.0404 478.566 0.995146 0.0249227 0.0952045
17.91 -48.1521 478.744 0.984482 -0.0108629 0.175151
17.8227 -48.2469 478.948 0.955952 -0.0564066 0.288051
17.7477 -48.3452 479.146 0.960857 -0.0503292 0.272435
17.7216 -48.4567 479.325 0.954613 -0.0774174 0.287611
17.6385 -48.5494 479.529 0.928493 -0.1526 0.338547
17.561 -48.6505 479.727 0.917151 -0.202028 0.343538
17.4385 -48.739 479.944 0.904997 -0.186807 0.382208
17.3254 -48.8253 480.159 0.94163 -0.122354 0.313627
17.2753 -48.9297 480.348 0.963891 -0.0615948 0.259077
17.2087 -49.0306 480.544 0.947999 -0.0987851 0.302556
17.1273 -49.1275 480.746 0.905019 -0.162191 0.393237
16.9806 -49.207 480.974 0.839608 -0.195855 0.506655
16.8326 -49.2862 481.204 0.830354 -0.268972 0.488022
16.7023 -49.3703 481.426 0.883632 -0.314807 0.346541
16.6017 -49.4602 481.637 0.912362 -0.215385 0.348143
16.4371 -49.5357 481.873 0.880444 -0.146297 0.451016
16.32 -49.6252 482.09 0.866428 -0.151757 0.475681
16.1632 -49.6987 482.325 0.869576 -0.152397 0.469694
16.0509 -49.7918 482.539 0.830855 -0.252898 0.495705
15.8575 -49.8596 482.788 0.75747 -0.37642 0.53343
15.6124 -49.9137 483.058 0.729161 -0.371041 0.575024
15.3811 -49.9715 483.323 0.790252 -0.320291 0.522413
15.2423 -50.0542 483.55 0.772156 -0.334934 0.539995
14.9616 -50.0993 483.836 0.756904 -0.322782 0.56825
14.7945 -50.1746 484.075 0.777046 -0.290801 0.558242
14.555 -50.2309 484.345 0.700721 -0.336061 0.629327
14.1776 -50.2507 484.672 0.629338 -0.336407 0.700546
13.8078 -50.2728 484.996 0.663522 -0.321518 0.675548
13.5182 -50.3164 485.287 0.783925 -0.273931 0.557156
13.3891 -50.4026 485.511 0.695849 -0.338257 0.633542
13.0244 -50.4266 485.834 0.540245 -0.469312 0.698486
12.4056 -50.3838 486.263 0.523922 -0.482434 0.701971
12.0313 -50.4059 486.591 0.576399 -0.413842 0.704627
12.3473 -37.9713 469.111 0.531484 0.510041 -0.676301
12.6407 -38.1761 469.168 0.565986 0.492889 -0.660848
12.8543 -38.3575 469.256 0.62214 0.481453 -0.617369
13.0594 -38.5363 469.347 0.652653 0.497239 -0.571662
13.2802 -38.7195 469.432 0.622083 0.496098 -0.605722
13.5199 -38.9082 469.509 0.609641 0.473725 -0.635549
13.7503 -39.094 469.59 0.629901 0.467345 -0.620334
13.9394 -39.2677 469.686 0.667885 0.479657 -0.569086
14.1417 -39.4452 469.778 0.689918 0.48578 -0.536684
14.348 -39.6237 469.867 0.68483 0.460322 -0.5649
14.5407 -39.7981 469.962 0.760003 0.420852 -0.495257
14.6734 -39.9563 470.078 0.757587 0.419252 -0.50029
14.8485 -40.1244 470.18 0.741746 0.442294 -0.50417
15.0025 -40.2874 470.289 0.750921 0.445992 -0.487041
15.1909 -40.4603 470.385 0.750501 0.423853 -0.507047
15.3265 -40.6179 470.501 0.77144 0.407155 -0.488985
15.5035 -40.7867 470.601 0.781714 0.410938 -0.469099
15.6483 -40.9474 470.713 0.80729 0.392794 -0.44045
15.7718 -41.1013 470.833 0.803411 0.393841 -0.446564
15.9194 -41.259 470.947 0.842151 0.377167 -0.38539
16.0245 -41.4105 471.071 0.890282 0.320555 -0.323485
16.1447 -41.5633 471.193 0.87324 0.316294 -0.370689
16.2367 -41.709 471.324 0.825383 0.348529 -0.44415
16.3795 -41.8671 471.437 0.807528 0.381942 -0.449465
16.5232 -42.0265 471.549 0.827218 0.383105 -0.411024
16.6344 -42.1749 471.675 0.84777 0.349336 -0.399062
16.7573 -42.3298 471.794 0.909485 0.286606 -0.301155
16.8093 -42.4628 471.941 0.915767 0.284631 -0.283471
16.9195 -42.6124 472.066 0.881446 0.331639 -0.336257
17.0266 -42.761 472.191 0.915804 0.298549 -0.268648
17.1012 -42.9004 472.33 0.936673 0.258155 -0.236642
17.1928 -43.0446 472.462 0.919322 0.256737 -0.298217
17.2514 -43.1794 472.606 0.877612 0.33081 -0.346931
17.381 -43.3343 472.723 0.832743 0.40197 -0.380735
17.518 -43.4898 472.838 0.89734 0.342394 -0.278474
17.5823 -43.6275 472.979 0.972912 0.199073 -0.117522
17.618 -43.7557 473.132 0.984342 0.133831 -0.11472
17.6504 -43.8829 473.287 0.977681 0.157313 -0.139255
17.68 -44.0094 473.443 0.960997 0.227126 -0.157792
17.7604 -44.1502 473.579 0.953433 0.237013 -0.186522
17.7974 -44.2787 473.732 0.965932 0.214961 -0.144108
17.8514 -44.412 473.878 0.969075 0.214768 -0.121529
17.9199 -44.5494 474.018 0.964131 0.183055 -0.192203
17.9693 -44.6813 474.166 0.953039 0.167972 -0.251996
18.0331 -44.8172 474.308 0.97386 0.141293 -0.177856
18.0588 -44.9427 474.465 0.990879 0.110491 -0.0771414
18.0843 -45.0679 474.623 0.988535 0.123011 -0.0875646
18.1235 -45.197 474.775 0.988933 0.122388 -0.0838657
18.1488 -45.3222 474.932 0.993148 0.101525 -0.057876
18.1466 -45.44 475.101 0.99185 0.119841 -0.0432709
18.1718 -45.5649 475.258 0.984073 0.167856 -0.0585232
18.2191 -45.6961 475.406 0.987007 0.157032 -0.0340214
18.2444 -45.8215 475.564 0.996194 0.0848987 0.0197356
18.2544 -45.9425 475.727 0.998023 0.0568338 0.0268206
18.2526 -46.0603 475.896 0.998242 0.0573994 0.0147509
18.265 -46.1817 476.058 0.996724 0.0807519 -0.00443618
18.2771 -46.3034 476.221 0.996045 0.0879246 0.0128058
18.259 -46.4166 476.396 0.996564 0.0826433 0.0054665
18.2785 -46.5403 476.555 0.994501 0.0946194 0.0448792
18.2571 -46.6527 476.731 0.987938 0.0672593 0.139477
18.2126 -46.7587 476.917 0.976316 0.0225296 0.215172
18.171 -46.8657 477.101 0.987054 0.00173127 0.160376
18.185 -46.9876 477.263 0.999557 -0.005918 0.0291737
18.1938 -47.1085 477.428 0.998633 0.0101552 0.0512784
18.1704 -47.2205 477.605 0.992501 0.0147145 0.121346
18.1495 -47.3331 477.781 0.974079 -0.0518952 0.220175
18.0628 -47.4278 477.984 0.962501 -0.0951649 0.254039
18.0354 -47.5387 478.163 0.971118 -0.093202 0.219645
17.9613 -47.6369 478.361 0.968286 -0.0652383 0.241178
17.9262 -47.7458 478.543 0.981573 -0.0420793 0.186395
17.876 -47.8507 478.731 0.99068 0.031779 0.132452
17.8609 -47.9651 478.905 0.973443 -0.00845222 0.228771
17.8095 -48.0697 479.094 0.960184 -0.0882824 0.265052
17.7721 -48.1782 479.277 0.966705 -0.0951415 0.23755
17.6819 -48.2723 479.482 0.962469 -0.0955045 0.254031
17.6366 -48.3775 479.669 0.939996 -0.125011 0.317459
17.519 -48.4655 479.885 0.903932 -0.17035 0.392284
17.4002 -48.5521 480.102 0.90429 -0.130223 0.406573
17.3208 -48.6494 480.303 0.937295 -0.0935865 0.335738
17.2358 -48.7453 480.506 0.963394 -0.0616326 0.26091
17.2025 -48.8547 480.688 0.942485 -0.106397 0.316863
17.07 -48.9383 480.911 0.877592 -0.21056 0.430694
16.9155 -49.0157 481.143 0.866406 -0.250502 0.43196
16.8223 -49.1096 481.35 0.881425 -0.247656 0.402189
16.6965 -49.199 481.568 0.866967 -0.198263 0.457231
16.5038 -49.2636 481.817 0.863362 -0.14297 0.483906
16.4008 -49.3537 482.029 0.873162 -0.141467 0.46645
16.2539 -49.4384 482.257 0.868888 -0.15553 0.46994
16.1275 -49.5189 482.48 0.893695 -0.169478 0.415435
16.0502 -49.6171 482.681 0.860021 -0.231147 0.454901
15.8641 -49.6872 482.927 0.749417 -0.344501 0.565414
15.5885 -49.733 483.211 0.733296 -0.355043 0.579847
15.3842 -49.7981 483.465 0.792694 -0.294803 0.533599
15.1854 -49.8647 483.717 0.758145 -0.342249 0.55505
14.9311 -49.9167 483.992 0.742033 -0.372039 0.55765
14.7201 -49.9803 484.249 0.750009 -0.372892 0.546295
14.4543 -50.0295 484.53 0.664304 -0.361584 0.654184
14.0712 -50.0478 484.859 0.636979 -0.332748 0.695367
13.7491 -50.0825 485.164 0.693868 -0.30833 0.650753
13.5582 -50.1521 485.414 0.756133 -0.382847 0.530747
13.3099 -50.2066 485.688 0.681193 -0.448643 0.578528
12.9588 -50.2341 486.005 0.559423 -0.452604 0.694403
12.4176 -50.2116 486.402 0.522768 -0.456398 0.72001
11.8478 -50.1819 486.812 0.587554 -0.391551 0.708145
12.5983 -37.9867 469.324 0.585573 0.50852 -0.631278
12.8453 -38.178 469.399 0.647496 0.469712 -0.6001
13.0314 -38.3513 469.497 0.617919 0.44739 -0.646543
13.3049 -38.5501 469.562 0.58697 0.473228 -0.656903
13.527 -38.7337 469.646 0.6145 0.477069 -0.628327
13.7449 -38.916 469.731 0.664014 0.47813 -0.574871
13.9337 -39.0897 469.828 0.683099 0.471869 -0.557419
14.1441 -39.2696 469.916 0.656153 0.46509 -0.594269
14.3555 -39.4483 470.005 0.695583 0.470243 -0.543172
14.5132 -39.6141 470.111 0.764549 0.455719 -0.455834
14.6784 -39.7806 470.216 0.768799 0.418077 -0.4839
14.8343 -39.9443 470.325 0.746565 0.423912 -0.512777
15.0147 -40.1151 470.424 0.728128 0.438449 -0.52687
15.1914 -40.2847 470.524 0.74789 0.419497 -0.514474
15.3514 -40.4494 470.63 0.779193 0.394315 -0.487211
15.482 -40.6055 470.748 0.780864 0.397231 -0.48214
15.6311 -40.767 470.859 0.80729 0.405608 -0.428678
15.7746 -40.9265 470.971 0.817956 0.389549 -0.42332
15.8993 -41.0784 471.093 0.836496 0.372133 -0.402233
16.0264 -41.2358 471.21 0.875069 0.344489 -0.339973
16.1056 -41.3769 471.347 0.866386 0.374287 -0.330583
16.2643 -41.5407 471.453 0.844741 0.388802 -0.367757
16.363 -41.6873 471.583 0.823843 0.38595 -0.415122
16.5054 -41.8464 471.695 0.817625 0.4025 -0.411683
16.6491 -42.0057 471.807 0.854185 0.354741 -0.380168
16.7403 -42.15 471.939 0.913818 0.289671 -0.284652
16.8224 -42.2917 472.075 0.918078 0.288814 -0.271514
16.9166 -42.4368 472.206 0.888188 0.314718 -0.334776
17.0068 -42.5807 472.338 0.91035 0.296507 -0.288699
17.0904 -42.7227 472.473 0.921176 0.268672 -0.281513
17.1713 -42.8639 472.609 0.931668 0.260388 -0.253362
17.2465 -43.0054 472.746 0.896567 0.322527 -0.303552
17.3686 -43.1578 472.866 0.838545 0.379558 -0.390868
17.4792 -43.3057 472.991 0.889933 0.337918 -0.306318
17.5664 -43.4485 473.124 0.959278 0.235164 -0.156473
17.6056 -43.5778 473.277 0.981228 0.178941 -0.0719184
17.6367 -43.7047 473.432 0.981549 0.183706 -0.0530465
17.6723 -43.8329 473.585 0.95896 0.217951 -0.181364
17.7584 -43.9753 473.719 0.956886 0.219555 -0.190171
17.7931 -44.1033 473.873 0.970503 0.195511 -0.141068
17.8598 -44.2402 474.014 0.95095 0.21454 -0.22286
17.9269 -44.3772 474.155 0.948482 0.240003 -0.206834
18.0036 -44.5169 474.292 0.96098 0.21969 -0.16809
18.0376 -44.6447 474.446 0.980183 0.174684 -0.0934166
18.0639 -44.7699 474.603 0.986988 0.156952 -0.0349379
18.0884 -44.8951 474.761 0.98527 0.162914 -0.0519843
18.1157 -45.0209 474.917 0.98504 0.165452 -0.0481896
18.1392 -45.1457 475.076 0.992044 0.125761 -0.00574864
18.1586 -45.2692 475.235 0.995757 0.087827 -0.0274555
18.1772 -45.3927 475.395 0.989406 0.10661 -0.0985376
18.2026 -45.5178 475.553 0.986514 0.144047 -0.0777254
18.2276 -45.643 475.71 0.992899 0.117322 0.0196743
18.2117 -45.7568 475.884 0.992906 0.10654 0.0527833
18.2353 -45.8816 476.042 0.993782 0.0982707 0.0523503
18.2131 -45.9939 476.219 0.995363 0.0922528 0.0272239
18.2373 -46.1186 476.377 0.993659 0.111021 0.0177621
18.2616 -46.2436 476.535 0.993873 0.0923135 0.0607815
18.239 -46.3556 476.711 0.989739 0.0977603 0.10421
18.2378 -46.4736 476.879 0.988271 0.0428185 0.146583
18.2199 -46.5869 477.054 0.992659 -0.0246191 0.118412
18.2282 -46.7076 477.219 0.999031 -0.0415666 0.0144545
18.2182 -46.8232 477.39 0.998369 -0.0254112 0.0511184
18.1584 -46.9251 477.582 0.991557 0.0277899 0.126662
18.1558 -47.0428 477.751 0.988935 0.0253433 0.146171
18.1095 -47.1485 477.938 0.974828 -0.0269308 0.221324
18.0827 -47.2596 478.116 0.9676 -0.0744809 0.241253
18.002 -47.3559 478.317 0.960959 -0.0888696 0.262032
17.9362 -47.4563 478.511 0.968661 -0.0123365 0.248079
17.9134 -47.5687 478.689 0.974012 -0.016358 0.225907
17.8417 -47.6676 478.886 0.985005 0.0222812 0.171079
17.8639 -47.7923 479.045 0.979516 0.0208923 0.200278
17.7684 -47.8848 479.252 0.966069 -0.0685577 0.249018
17.7263 -47.992 479.437 0.960986 -0.052219 0.271625
17.6561 -48.0916 479.634 0.954998 -0.0783048 0.286089
17.5948 -48.192 479.828 0.933629 -0.151094 0.324819
17.4743 -48.2817 480.043 0.887731 -0.169583 0.427989
17.3452 -48.3634 480.266 0.914098 -0.132258 0.383318
17.2675 -48.4618 480.465 0.946278 -0.0777492 0.313868
17.2133 -48.5654 480.656 0.960449 -0.044314 0.274908
17.1456 -48.6655 480.853 0.941665 -0.110607 0.317857
17.062 -48.7607 481.056 0.889115 -0.210866 0.406215
16.9529 -48.8518 481.269 0.866979 -0.308109 0.391685
16.7893 -48.9267 481.505 0.841449 -0.329155 0.428509
16.5803 -48.9895 481.76 0.838643 -0.24833 0.484778
16.4754 -49.0823 481.971 0.869917 -0.176895 0.460383
16.3324 -49.1612 482.2 0.876676 -0.163925 0.452291
16.2032 -49.2462 482.422 0.890452 -0.160356 0.425889
16.1256 -49.3442 482.623 0.899274 -0.151776 0.410208
15.9553 -49.418 482.863 0.861301 -0.159656 0.48236
15.8188 -49.4993 483.089 0.757578 -0.276892 0.591106
15.5105 -49.5379 483.386 0.742035 -0.282107 0.608112
15.3312 -49.6095 483.629 0.808074 -0.190435 0.557451
15.1663 -49.6846 483.868 0.776985 -0.261763 0.572516
14.9411 -49.7449 484.131 0.750693 -0.344696 0.5636
14.7314 -49.8088 484.388 0.706036 -0.38369 0.595227
14.3686 -49.8321 484.709 0.627616 -0.413785 0.659454
13.9834 -49.8496 485.039 0.630596 -0.4127 0.657288
13.6895 -49.8917 485.332 0.746835 -0.347992 0.566691
13.5786 -49.9825 485.549 0.767339 -0.361641 0.529535
13.2959 -50.0278 485.837 0.648238 -0.441253 0.62055
12.9212 -50.049 486.165 0.606736 -0.459932 0.648331
12.2635 -49.9954 486.611 0.570792 -0.313781 0.758774
11.8345 -50.0028 486.962 0.626078 -0.276311 0.729163
12.616 -37.8148 469.456 0.57734 0.507508 -0.63962
12.8815 -38.0116 469.525 0.614324 0.47097 -0.633083
13.0918 -38.1921 469.613 0.62538 0.443258 -0.642201
13.2926 -38.3697 469.706 0.59371 0.452675 -0.665277
13.5255 -38.5566 469.786 0.627851 0.44833 -0.636241
13.7211 -38.7325 469.88 0.654471 0.440253 -0.614691
13.9387 -38.9148 469.965 0.664457 0.476706 -0.575542
14.1461 -39.0939 470.054 0.68337 0.469635 -0.558971
14.3055 -39.259 470.162 0.721627 0.463468 -0.514249
14.4997 -39.4355 470.254 0.730884 0.449844 -0.513273
14.6843 -39.6063 470.353 0.756305 0.403913 -0.514643
14.8219 -39.7648 470.469 0.746994 0.417019 -0.517779
15.0101 -39.9378 470.565 0.725076 0.447273 -0.523652
15.1728 -40.101 470.672 0.755026 0.46141 -0.465872
15.3377 -40.2678 470.777 0.790469 0.436393 -0.429791
15.4797 -40.4267 470.89 0.807523 0.40028 -0.433223
15.6179 -40.587 471.003 0.800402 0.402161 -0.444549
15.7586 -40.7444 471.118 0.81803 0.396571 -0.416603
15.8905 -40.9029 471.234 0.845079 0.367517 -0.388294
15.9958 -41.0516 471.361 0.889549 0.313816 -0.331997
16.085 -41.1956 471.494 0.858982 0.348747 -0.374866
16.2189 -41.3527 471.61 0.827573 0.402818 -0.390973
16.3523 -41.5108 471.725 0.834437 0.397203 -0.382027
16.4892 -41.6656 471.841 0.807086 0.412995 -0.421957
16.6276 -41.8245 471.955 0.859393 0.378142 -0.344168
16.7172 -41.9685 472.087 0.916675 0.307975 -0.254674
16.7954 -42.1093 472.224 0.910219 0.309654 -0.274982
16.8971 -42.2563 472.353 0.894288 0.299457 -0.332528
16.9994 -42.4038 472.48 0.901518 0.284823 -0.325794
17.0959 -42.5495 472.61 0.925654 0.262737 -0.272275
17.1553 -42.6846 472.755 0.93882 0.25866 -0.227401
17.2281 -42.8244 472.893 0.893012 0.323402 -0.312954
17.3507 -42.9746 473.015 0.846935 0.358891 -0.392298
17.4767 -43.1289 473.133 0.893908 0.317312 -0.316609
17.543 -43.2675 473.273 0.962341 0.221814 -0.157155
17.5689 -43.3929 473.43 0.984768 0.162215 -0.0625983
17.5958 -43.5187 473.587 0.972681 0.200652 -0.116749
17.6821 -43.6613 473.721 0.957826 0.216897 -0.18848
17.7098 -43.7873 473.877 0.960685 0.206584 -0.185491
17.7888 -43.9277 474.014 0.959923 0.227983 -0.163006
17.8343 -44.0588 474.163 0.959258 0.229596 -0.164654
17.8831 -44.1907 474.312 0.948558 0.269669 -0.165881
17.9448 -44.3262 474.455 0.958887 0.260471 -0.112649
17.9858 -44.4559 474.606 0.978955 0.200647 -0.0372566
18.0123 -44.5815 474.763 0.981706 0.189639 -0.0170178
18.043 -44.7082 474.918 0.98154 0.189869 -0.0229815
18.0727 -44.8348 475.074 0.981827 0.186105 -0.0371649
18.1117 -44.9639 475.226 0.985287 0.167413 -0.0343833
18.137 -45.0892 475.384 0.987187 0.159024 -0.0131238
18.1623 -45.2146 475.541 0.988293 0.152553 -0.00190873
18.1706 -45.3346 475.705 0.988302 0.152081 -0.0114147
18.1956 -45.4602 475.863 0.99226 0.118031 0.0385921
18.1932 -45.5777 476.032 0.996307 0.0820428 0.0253214
18.2105 -45.7008 476.192 0.997515 0.0704219 0.00216485
18.2244 -45.8231 476.355 0.998369 0.0556242 0.0128938
18.2266 -45.9416 476.521 0.998442 0.0556589 -0.00406556
18.2054 -46.0542 476.697 0.997283 0.0326219 0.0660551
18.1949 -46.1696 476.869 0.993743 0.0838435 0.0737848
18.2187 -46.2945 477.027 0.991696 0.0944823 0.0872527
18.1992 -46.4074 477.203 0.994213 0.0697427 0.0817046
18.2052 -46.5275 477.368 0.986532 0.0828336 0.141047
18.1397 -46.6278 477.562 0.969028 0.0880567 0.23072
18.1422 -46.7468 477.729 0.978682 0.0947638 0.182214
18.114 -46.8575 477.908 0.98338 0.0505658 0.174377
18.0876 -46.9687 478.087 0.976485 0.0122972 0.215235
18.0306 -47.0715 478.278 0.963327 -0.0324067 0.266368
17.9703 -47.1734 478.47 0.945262 -0.091976 0.313082
17.8762 -47.2665 478.676 0.976048 -0.0327326 0.21508
17.8807 -47.3859 478.843 0.977388 -0.0306782 0.209217
17.7984 -47.482 479.044 0.984308 -0.0100901 0.176172
17.7957 -47.5999 479.213 0.981086 0.0665829 0.181762
17.7698 -47.7114 479.392 0.954832 -0.0400542 0.294434
17.6766 -47.8047 479.598 0.96625 -0.0853712 0.243048
17.653 -47.9169 479.776 0.965252 -0.120586 0.231836
17.5725 -48.0137 479.977 0.910431 -0.185315 0.36983
17.42 -48.0922 480.207 0.889057 -0.177016 0.422188
17.3421 -48.1886 480.408 0.917617 -0.164713 0.36173
17.2317 -48.2775 480.622 0.949047 -0.121444 0.290794
17.1798 -48.3824 480.812 0.97014 -0.112447 0.214907
17.1362 -48.4895 480.998 0.94695 -0.11763 0.29908
17.0296 -48.5779 481.211 0.922037 -0.136146 0.36237
16.9468 -48.6762 481.413 0.870155 -0.25678 0.420588
16.7728 -48.7483 481.654 0.804556 -0.314489 0.503773
16.6012 -48.8211 481.893 0.819293 -0.299468 0.488956
16.409 -48.8885 482.141 0.864291 -0.264178 0.428032
16.3013 -48.9787 482.355 0.883243 -0.215202 0.416617
16.1815 -49.0678 482.572 0.893407 -0.157458 0.420751
16.0348 -49.1376 482.806 0.878758 -0.163543 0.448373
15.9112 -49.2335 483.023 0.856168 -0.224264 0.465491
15.7584 -49.3104 483.256 0.750549 -0.293268 0.592174
15.4289 -49.3416 483.562 0.73806 -0.2547 0.624816
15.2486 -49.4136 483.806 0.825634 -0.154743 0.542571
15.0842 -49.4877 484.045 0.810081 -0.204057 0.549663
14.8987 -49.5589 484.291 0.759467 -0.295526 0.579547
14.6232 -49.6052 484.576 0.692449 -0.381305 0.612471
14.3602 -49.655 484.855 0.623835 -0.429436 0.653004
13.9762 -49.6728 485.186 0.645671 -0.392372 0.655098
13.7086 -49.7217 485.468 0.765955 -0.323011 0.555857
13.5193 -49.7917 485.717 0.77598 -0.277422 0.566474
13.2545 -49.8417 485.998 0.649303 -0.33351 0.683503
12.7893 -49.8387 486.364 0.593653 -0.379328 0.709709
12.0939 -49.7749 486.826 0.5831 -0.331992 0.741468
11.5964 -49.7652 487.205 0.615048 -0.338622 0.712075
12.6256 -37.6405 469.592 0.57135 0.531694 -0.625189
12.8451 -37.8239 469.678 0.617839 0.527605 -0.583017
13.0914 -38.0151 469.753 0.642491 0.505385 -0.576014
13.3157 -38.1997 469.836 0.619947 0.48807 -0.614372
13.5671 -38.3921 469.909 0.63346 0.447427 -0.631298
13.7462 -38.5632 470.009 0.679476 0.397548 -0.616658
13.9109 -38.7301 470.115 0.658587 0.451005 -0.602376
14.1403 -38.9158 470.196 0.700241 0.4745 -0.533397
14.3075 -39.0832 470.3 0.709624 0.447976 -0.54383
14.5218 -39.2643 470.386 0.699911 0.434069 -0.567193
14.6721 -39.4261 470.498 0.764935 0.415631 -0.492061
14.8341 -39.5923 470.603 0.763539 0.424899 -0.48628
14.9857 -39.7548 470.713 0.754158 0.430876 -0.495573
15.1389 -39.918 470.822 0.751705 0.445595 -0.486194
15.3225 -40.0916 470.918 0.770319 0.440105 -0.461428
15.4641 -40.2491 471.033 0.805356 0.408833 -0.429253
15.608 -40.4096 471.145 0.80897 0.405379 -0.425717
15.7438 -40.5667 471.261 0.81407 0.397351 -0.42356
15.8831 -40.7253 471.376 0.84195 0.388331 -0.374591
