13.8906 -13.9788 491.957 0.872077 0.290593 -0.393747
14.0361 -14.2328 492.092 0.923265 0.272231 -0.271057
14.1103 -14.4448 492.233 0.921167 0.280309 -0.269959
14.2463 -14.6929 492.368 0.933309 0.272463 -0.233877
14.3213 -14.9051 492.509 0.943746 0.246214 -0.220733
14.4236 -15.1331 492.648 0.924636 0.283834 -0.253942
14.5409 -15.3699 492.784 0.952972 0.238952 -0.186406
14.5879 -15.5653 492.928 0.966428 0.177723 -0.185559
14.6505 -15.7698 493.07 0.967201 0.192021 -0.166282
14.7103 -15.9727 493.211 0.962029 0.225571 -0.153683
14.7976 -16.1912 493.351 0.966317 0.224203 -0.126347
14.8559 -16.3932 493.492 0.976244 0.182673 -0.11653
14.902 -16.5874 493.636 0.976343 0.142429 -0.162691
14.9544 -16.7844 493.78 0.979758 0.14802 -0.134777
14.9973 -16.9777 493.922 0.97848 0.184884 -0.0916272
15.0556 -17.179 494.064 0.985948 0.163346 -0.0349986
15.0841 -17.3624 494.209 0.993701 0.111996 -0.00398008
15.1079 -17.5439 494.353 0.997721 0.0660186 -0.0139401
15.0899 -17.7006 494.502 0.998461 0.0547512 -0.00882154
15.1181 -17.8841 494.647 0.9903 0.130564 -0.0475339
15.1579 -18.0743 494.79 0.986873 0.159454 -0.0256094
15.1862 -18.2576 494.934 0.993149 0.109883 0.0397633
15.1818 -18.422 495.082 0.994651 0.101398 0.0196759
15.2031 -18.6012 495.227 0.995069 0.0854527 0.0503483
15.1933 -18.7623 495.375 0.994132 0.0718937 0.0808288
15.21 -18.9388 495.52 0.992707 0.0603865 0.104342
15.1964 -19.0976 495.668 0.994678 0.0149708 0.101934
15.188 -19.2595 495.816 0.994484 -0.00191799 0.104869
15.1595 -19.4096 495.966 0.995601 0.0221762 0.0910278
15.1649 -19.5794 496.112 0.995824 0.0451246 0.0793619
15.1488 -19.7366 496.261 0.980347 -0.0050878 0.197215
15.1081 -19.8796 496.412 0.981006 -0.0329359 0.191159
15.0999 -20.0414 496.56 0.993897 -0.0374983 0.103743
15.0556 -20.1824 496.711 0.990048 -0.0625173 0.126079
15.0338 -20.3362 496.86 0.983849 -0.0611175 0.168243
14.9887 -20.4767 497.012 0.978059 -0.100679 0.182383
14.943 -20.6168 497.163 0.973661 -0.137145 0.182143
14.9056 -20.7616 497.314 0.975989 -0.136589 0.169671
14.8526 -20.8975 497.466 0.986931 -0.108323 0.119301
14.807 -21.0376 497.618 0.988647 -0.0453316 0.143257
14.7918 -21.1951 497.766 0.968738 -0.0821529 0.234088
14.7321 -21.3271 497.919 0.950159 -0.156943 0.269383
14.6715 -21.4584 498.072 0.922835 -0.188338 0.336012
14.5526 -21.5572 498.232 0.884233 -0.191788 0.425852
13.5727 -22.66 499.806 0.860105 0.025155 0.509497
13.5005 -22.7843 499.96 0.888238 0.0265295 0.458618
6.96067 -24.4488 505.441 0.218122 -0.561994 0.797863
6.26415 -24.23 505.675 0.229083 -0.537324 0.811667
5.97348 -24.2364 505.859 0.483471 -0.465891 0.741081
5.70167 -24.2534 506.041 0.431683 -0.464619 0.773162
5.31736 -24.2084 506.238 0.225831 -0.5403 0.810603
13.2996 -12.7752 491.571 0.880056 0.300886 -0.36738
13.4498 -13.0328 491.706 0.869081 0.29679 -0.395746
13.6168 -13.3001 491.839 0.856226 0.31649 -0.408303
13.7798 -13.5649 491.972 0.890232 0.298277 -0.344265
13.8755 -13.7899 492.112 0.90164 0.28018 -0.329461
13.9928 -14.0275 492.249 0.927637 0.283913 -0.242656
14.0837 -14.2493 492.389 0.928542 0.288849 -0.233189
14.2087 -14.4912 492.525 0.928588 0.272857 -0.251542
14.2926 -14.7087 492.665 0.946855 0.245013 -0.208409
14.3818 -14.9292 492.805 0.925815 0.274814 -0.259506
14.5017 -15.1676 492.941 0.940696 0.279874 -0.191734
14.5966 -15.3911 493.08 0.971972 0.214519 -0.0961889
14.6269 -15.5768 493.225 0.975417 0.178047 -0.129848
14.6965 -15.7854 493.366 0.965329 0.191892 -0.176968
14.7481 -15.9827 493.51 0.959572 0.218262 -0.177717
14.847 -16.2088 493.647 0.96263 0.238919 -0.127523
14.9256 -16.4223 493.787 0.980574 0.181773 -0.0737111
14.9362 -16.5954 493.934 0.98964 0.104745 -0.0981883
14.967 -16.7814 494.078 0.982443 0.138847 -0.124606
15.017 -16.978 494.22 0.982681 0.178423 -0.0500238
15.0485 -17.1637 494.365 0.984875 0.173125 0.00695413
15.0912 -17.3558 494.508 0.991383 0.122603 0.0461255
15.1027 -17.5297 494.654 0.996598 0.0608706 0.0555578
15.0892 -17.6891 494.802 0.994855 0.0980142 -0.0256348
15.1205 -17.8743 494.947 0.989061 0.138556 -0.0506087
15.1551 -18.0615 495.09 0.99413 0.108096 0.00456489
15.1712 -18.2378 495.236 0.996621 0.0817817 0.00763229
15.191 -18.4162 495.381 0.998327 0.0517333 0.0258154
15.1798 -18.5766 495.529 0.995802 0.0557129 0.0726225
15.1784 -18.7426 495.676 0.992908 0.0901864 0.0774635
15.1923 -18.9175 495.822 0.992279 0.0445745 0.115737
15.1602 -19.0657 495.972 0.99232 0.00111944 0.123695
15.1558 -19.2298 496.12 0.996333 0.00107002 0.0855524
15.133 -19.3833 496.269 0.994935 0.00748993 0.100246
15.1114 -19.5375 496.418 0.985108 0.0103188 0.171627
15.0922 -19.693 496.567 0.988295 0.0205954 0.151156
15.0822 -19.8537 496.715 0.992571 -0.0138261 0.120877
15.0635 -20.0095 496.863 0.986105 -0.113783 0.121035
15.007 -20.1434 497.016 0.990207 -0.0975664 0.0998499
15.0111 -20.3122 497.162 0.98363 -0.0772269 0.162815
14.9524 -20.4449 497.315 0.971096 -0.0751703 0.226541
14.9094 -20.5866 497.467 0.968133 -0.0307067 0.248546
14.8694 -20.73 497.618 0.958148 -0.0270114 0.284996
14.8118 -20.8632 497.77 0.975293 -0.0143231 0.220448
14.7857 -21.0144 497.92 0.975487 -0.0476863 0.214829
14.7257 -21.1464 498.073 0.938432 -0.125741 0.321769
14.627 -21.256 498.23 0.892327 -0.190726 0.409115
14.5217 -21.3622 498.388 0.836397 -0.248979 0.488313
13.6127 -22.5059 499.955 0.920383 -0.350174 0.173991
13.5116 -22.6146 500.113 0.895585 -0.353846 0.269669
6.82538 -24.1962 505.614 0.187306 -0.600802 0.777144
6.29171 -24.0675 505.829 0.242024 -0.550264 0.799146
5.93236 -24.0357 506.022 0.449643 -0.508633 0.734244
5.64252 -24.0427 506.206 0.41596 -0.479554 0.772661
13.3337 -12.6149 491.721 0.879184 0.335523 -0.338319
13.4661 -12.862 491.858 0.877368 0.312578 -0.364034
13.605 -13.1129 491.993 0.875647 0.333477 -0.349335
13.7442 -13.3638 492.129 0.89851 0.349769 -0.265221
13.8949 -13.6213 492.263 0.928913 0.304969 -0.210033
13.9607 -13.8286 492.405 0.930925 0.279734 -0.234791
14.1025 -14.0806 492.54 0.916835 0.27515 -0.289319
14.201 -14.3069 492.679 0.928613 0.259719 -0.264997
14.3079 -14.538 492.817 0.944573 0.252417 -0.209924
14.3883 -14.7535 492.957 0.941293 0.255499 -0.220654
14.4711 -14.97 493.098 0.94197 0.270639 -0.198613
14.5467 -15.1826 493.238 0.959971 0.256156 -0.113315
14.6373 -15.4038 493.377 0.970504 0.217982 -0.102983
14.6899 -15.6024 493.52 0.970609 0.187724 -0.150594
14.7618 -15.8123 493.66 0.971003 0.171495 -0.166562
14.7803 -15.9909 493.806 0.959283 0.217902 -0.179705
14.8812 -16.2173 493.944 0.963382 0.253956 -0.0860297
14.9594 -16.4307 494.084 0.986334 0.164659 -0.00575791
14.9671 -16.6028 494.231 0.993476 0.110209 -0.0293228
14.9762 -16.7756 494.377 0.989055 0.139486 -0.0481003
15.0189 -16.9679 494.52 0.987554 0.147011 -0.0559019
15.0467 -17.1515 494.665 0.990085 0.14044 -0.00299325
15.07 -17.3323 494.81 0.991352 0.108578 0.0737093
15.0804 -17.5055 494.956 0.992964 0.116068 0.0234576
15.1214 -17.6966 495.099 0.991266 0.117749 -0.0593783
15.1368 -17.8727 495.245 0.994203 0.101895 -0.0343263
15.1648 -18.0559 495.389 0.994276 0.105426 0.0173241
15.1657 -18.2235 495.536 0.993665 0.062978 0.0930792
15.1428 -18.3772 495.686 0.992314 0.0472719 0.114356
15.1408 -18.5429 495.833 0.99349 0.0947205 0.0632954
15.1581 -18.7198 495.978 0.992547 0.0715981 0.098612
15.1481 -18.8808 496.126 0.993685 0.0250216 0.10938
15.1455 -19.0461 496.274 0.993829 0.00297375 0.110884
15.1108 -19.1928 496.424 0.98836 -0.0205742 0.150737
15.0859 -19.3451 496.574 0.990029 -0.0124696 0.14031
15.0594 -19.4965 496.723 0.996084 0.0279651 0.0838677
15.0837 -19.6771 496.868 0.999515 0.0111498 0.0290617
15.0783 -19.8405 497.015 0.986151 -0.0984429 0.133476
15.0189 -19.9729 497.168 0.978576 -0.111199 0.173271
14.9591 -20.105 497.321 0.970919 -0.0806412 0.225417
14.8862 -20.2294 497.476 0.949671 -0.0667582 0.306052
14.8262 -20.3615 497.629 0.956849 -0.0322478 0.28879
14.7671 -20.4939 497.782 0.962994 0.0122848 0.269242
14.7623 -20.6576 497.929 0.970262 0.051216 0.236577
14.7365 -20.8091 498.079 0.952416 0.0344424 0.302849
14.6765 -20.941 498.232 0.910147 -0.0148199 0.41402
14.6059 -21.067 498.386 0.869704 -0.0859747 0.486028
14.4852 -21.1641 498.546 0.862148 -0.142838 0.486106
13.6326 -22.3402 500.106 0.909104 -0.195563 0.367811
13.5195 -22.4422 500.266 0.848676 -0.281179 0.447982
13.3694 -22.5232 500.429 0.85504 -0.243926 0.45761
13.2444 -22.6186 500.59 0.841609 -0.12582 0.525227
6.76124 -23.9829 505.779 0.152276 -0.632477 0.759464
6.21782 -23.8486 505.995 0.28361 -0.498028 0.819472
5.86491 -23.8204 506.187 0.45113 -0.384345 0.805456
5.5635 -23.8209 506.373 0.413348 -0.423191 0.806259
13.2877 -12.407 491.879 0.86941 0.36032 -0.338076
13.4586 -12.6771 492.012 0.891761 0.319607 -0.320333
13.571 -12.9124 492.15 0.898574 0.295865 -0.32408
13.7007 -13.1578 492.286 0.89526 0.340703 -0.287106
13.8364 -13.4066 492.422 0.918216 0.345718 -0.193282
13.9591 -13.6476 492.559 0.921176 0.333088 -0.201215
14.091 -13.8939 492.694 0.923344 0.319185 -0.213441
14.1709 -14.1094 492.835 0.940733 0.278543 -0.193479
14.2657 -14.3335 492.974 0.943823 0.262811 -0.200321
14.3492 -14.5509 493.114 0.94974 0.272534 -0.154013
14.4438 -14.7746 493.253 0.953623 0.260085 -0.151521
14.5152 -14.9849 493.394 0.954375 0.252093 -0.160054
14.599 -15.2019 493.534 0.958111 0.247691 -0.143778
14.676 -15.415 493.674 0.965152 0.231503 -0.122018
14.7449 -15.6233 493.815 0.976589 0.197543 -0.085146
14.7959 -15.8205 493.958 0.980552 0.161464 -0.111569
14.8196 -16.0019 494.104 0.959282 0.220634 -0.176347
14.9141 -16.2262 494.24 0.975536 0.218265 -0.0262597
14.9239 -16.3992 494.387 0.986234 0.157841 0.0492752
14.9831 -16.6009 494.53 0.988685 0.1446 -0.03992
15.0044 -16.7808 494.675 0.992433 0.107304 -0.0596806
15.0269 -16.9613 494.82 0.994694 0.102188 -0.0118851
15.0338 -17.1327 494.967 0.989018 0.13449 0.0612838
15.0529 -17.3114 495.112 0.987791 0.155382 -0.0112126
15.1054 -17.5089 495.254 0.990875 0.129121 -0.0386717
15.1151 -17.6818 495.4 0.994573 0.101131 0.0244366
15.1192 -17.8512 495.547 0.995734 0.0894234 0.0227303
15.1356 -18.0278 495.693 0.99318 0.0646742 0.0970121
15.1264 -18.1896 495.841 0.991759 0.0448668 0.120008
15.1178 -18.3515 495.989 0.997184 0.0655933 0.0363414
15.1346 -18.5282 496.134 0.996177 0.0719563 0.0495396
15.1304 -18.6927 496.281 0.991772 0.0549593 0.115621
15.1142 -18.8501 496.43 0.985828 0.0413613 0.162583
15.0957 -19.0062 496.579 0.986395 -0.00610511 0.164278
15.0703 -19.1583 496.729 0.990408 -0.00660066 0.138017
15.0599 -19.3191 496.877 0.994052 0.0837042 0.0696768
15.0884 -19.5021 497.02 0.991433 0.0899752 0.0946882
15.0457 -19.6441 497.172 0.965206 0.0139316 0.26112
14.9982 -19.7834 497.323 0.948773 -0.0441538 0.312859
14.9383 -19.9155 497.477 0.946786 -0.0975656 0.306721
14.8783 -20.0475 497.63 0.948726 -0.106196 0.297727
14.8202 -20.1805 497.783 0.955746 -0.0811345 0.282785
14.7711 -20.319 497.935 0.967522 -0.0254771 0.251501
14.7119 -20.4512 498.088 0.977105 -0.0341871 0.209991
14.6519 -20.5833 498.241 0.96084 -0.0899658 0.262094
14.5806 -20.7089 498.396 0.934152 -0.112909 0.338544
14.4979 -20.8277 498.551 0.90733 -0.131096 0.399457
14.4293 -20.9551 498.706 0.90614 -0.15661 0.392918
13.5567 -22.1202 500.269 0.915057 -0.214824 0.341352
13.4873 -22.247 500.423 0.827924 -0.276469 0.487962
13.3146 -22.3162 500.589 0.7634 -0.277759 0.583156
13.1461 -22.386 500.756 0.864793 -0.195902 0.462338
6.69788 -23.7699 505.944 0.161668 -0.546687 0.821582
6.06944 -23.5882 506.171 0.29423 -0.435754 0.850616
5.74175 -23.574 506.36 0.464976 -0.377798 0.800666
5.45671 -23.5836 506.544 0.3941 -0.470891 0.78927
13.2814 -12.2225 492.033 0.850556 0.333963 -0.406231
13.4717 -12.5042 492.164 0.882094 0.320195 -0.345522
13.5799 -12.7372 492.303 0.918778 0.258323 -0.298525
13.6728 -12.961 492.442 0.908824 0.265398 -0.321874
13.7879 -13.1978 492.58 0.906387 0.293496 -0.303848
13.911 -13.4392 492.717 0.910925 0.30263 -0.280412
14.0213 -13.6728 492.854 0.915202 0.316829 -0.249047
14.1794 -13.9345 492.987 0.933913 0.266349 -0.238465
14.2475 -14.143 493.129 0.949955 0.19494 -0.244098
14.3225 -14.3555 493.27 0.943098 0.218322 -0.250803
14.4217 -14.5821 493.408 0.94885 0.22977 -0.216539
14.4952 -14.7934 493.549 0.955806 0.230765 -0.182162
14.5803 -15.0115 493.689 0.958238 0.232399 -0.166646
14.6384 -15.2128 493.832 0.964253 0.228652 -0.133922
14.7104 -15.4234 493.972 0.967148 0.226316 -0.115788
14.7789 -15.6314 494.113 0.979992 0.188406 -0.0641858
14.8235 -15.826 494.256 0.980726 0.171596 -0.0934365
14.8525 -16.0106 494.401 0.980255 0.175406 -0.0912812
14.913 -16.2127 494.543 0.984791 0.1649 -0.0547255
14.9433 -16.3985 494.687 0.981771 0.180979 -0.0580645
15.0089 -16.6047 494.828 0.992476 0.122398 0.00324342
14.9865 -16.7591 494.977 0.995409 0.0656429 0.0696593
14.9825 -16.9242 495.125 0.987833 0.15185 0.0335658
15.0521 -17.1321 495.265 0.982374 0.183159 -0.0373485
15.0752 -17.3127 495.411 0.993003 0.114986 -0.0269119
15.0897 -17.4886 495.556 0.995373 0.0960793 0.000803155
15.1294 -17.6789 495.699 0.997227 0.0633099 0.0391086
15.0894 -17.8228 495.851 0.995646 0.0497287 0.0788404
15.1084 -18.0009 495.996 0.996322 0.0531668 0.0672009
15.103 -18.1648 496.143 0.997129 0.0574232 0.0493656
15.11 -18.3359 496.29 0.992904 0.0702036 0.0959867
15.0802 -18.4856 496.44 0.994889 0.00994036 0.100486
15.0768 -18.6506 496.587 0.998502 -0.00307225 0.0546288
15.0805 -18.8196 496.734 0.990683 -0.00643709 0.136035
15.0347 -18.9599 496.886 0.985827 -0.022142 0.166299
15.0017 -19.1076 497.036 0.998107 0.0350667 0.0505351
15.0101 -19.2792 497.182 0.993118 0.0315671 0.112783
14.969 -19.4222 497.333 0.972573 0.00239814 0.232586
14.9577 -19.5824 497.481 0.959599 -0.00101719 0.281369
14.8979 -19.7146 497.634 0.940076 -0.0329947 0.339364
14.8378 -19.8465 497.788 0.933379 -0.0472921 0.355763
14.7554 -19.9658 497.943 0.938637 -0.0471954 0.341662
7.70081 -23.654 505.532 0.71045 -0.498782 0.496465
7.51459 -23.7117 505.703 0.677231 -0.420074 0.604066
7.23045 -23.7209 505.886 0.590653 -0.394631 0.703843
6.49739 -23.4805 506.126 0.222865 -0.416505 0.881393
5.95985 -23.3492 506.342 0.328641 -0.405818 0.852823
5.71449 -23.3807 506.521 0.495199 -0.43429 0.752443
5.424 -23.3872 506.705 0.336772 -0.576719 0.744298
13.2789 -12.0403 492.187 0.865152 0.334029 -0.374082
13.4408 -12.3053 492.321 0.8808 0.347468 -0.321647
13.5846 -12.5595 492.456 0.91942 0.283888 -0.272167
13.6947 -12.7935 492.594 0.91458 0.225438 -0.335741
13.8092 -13.03 492.731 0.91135 0.26946 -0.311179
13.9255 -13.2675 492.869 0.919908 0.275591 -0.278961
14.0242 -13.4944 493.008 0.896115 0.293392 -0.333016
14.1808 -13.7553 493.141 0.914509 0.286836 -0.285304
14.2669 -13.9742 493.281 0.957409 0.221445 -0.185283
14.3443 -14.1884 493.421 0.953284 0.209621 -0.217506
14.4099 -14.3951 493.564 0.955468 0.220175 -0.196479
14.4845 -14.6076 493.704 0.958842 0.226111 -0.171745
14.5525 -14.8151 493.846 0.962511 0.212233 -0.168905
14.6253 -15.0263 493.986 0.966496 0.200042 -0.160835
14.6876 -15.2314 494.127 0.967908 0.202478 -0.14885
14.744 -15.4322 494.269 0.974767 0.198099 -0.10289
14.7977 -15.6316 494.412 0.980763 0.180838 -0.073488
14.8573 -15.8342 494.553 0.983111 0.160682 -0.0875997
14.886 -16.0188 494.698 0.98807 0.129679 -0.0830667
14.9144 -16.203 494.843 0.98203 0.1525 -0.111183
14.9758 -16.4065 494.984 0.991057 0.132935 0.0115993
14.9612 -16.5656 495.133 0.989968 0.0502341 0.132059
14.9554 -16.73 495.281 0.992061 0.118075 -0.0432921
15.0085 -16.9281 495.423 0.97535 0.201675 -0.0895556
15.0792 -17.1367 495.563 0.990482 0.137499 0.0062588
15.0678 -17.2974 495.712 0.995586 0.0937674 -0.0039721
15.0942 -17.48 495.856 0.995381 0.0674044 0.0683601
15.0731 -17.635 496.006 0.996045 0.0512285 0.0725969
15.1063 -17.8215 496.149 0.997673 0.0482577 0.0481571
15.0636 -17.9638 496.301 0.997701 0.0122102 0.0666646
15.0732 -18.1364 496.447 0.997986 0.0620963 0.0129656
15.1216 -18.3315 496.589 0.995551 0.0493175 0.0802879
15.0915 -18.481 496.739 0.993074 -0.0225031 0.11532
15.038 -18.617 496.892 0.990501 -0.017997 0.136323
15.0402 -18.7852 497.038 0.992727 -0.0209416 0.118555
15.0325 -18.9476 497.186 0.998341 -0.0183369 0.0545789
15.0206 -19.1075 497.334 0.990147 -0.0370306 0.135046
14.9609 -19.2398 497.487 0.973845 -0.0692466 0.216407
14.8981 -19.3703 497.641 0.966815 -0.0677834 0.246319
14.8381 -19.5025 497.794 0.953418 -0.104285 0.283053
14.7782 -19.6346 497.948 0.951627 -0.125577 0.280423
14.7306 -19.774 498.1 0.96391 -0.0950096 0.2487
7.66184 -23.4489 505.694 0.655883 -0.36408 0.661258
7.43367 -23.486 505.87 0.536317 -0.392151 0.747383
7.07042 -23.4539 506.063 0.445553 -0.417647 0.791867
6.32344 -23.2056 506.305 0.263599 -0.471762 0.841401
5.89104 -23.1327 506.508 0.387881 -0.457973 0.799881
5.66477 -23.1748 506.684 0.556412 -0.452618 0.696809
5.43183 -23.2133 506.862 0.289922 -0.591725 0.752201
13.1145 -11.5925 492.208 0.856877 0.366612 -0.362432
13.2839 -11.8623 492.34 0.888583 0.343538 -0.303978
13.3932 -12.0963 492.479 0.871062 0.346085 -0.348534
13.6096 -12.3936 492.607 0.890622 0.318674 -0.324407
13.6964 -12.614 492.747 0.940603 0.249718 -0.230013
13.7599 -12.8205 492.89 0.922947 0.272066 -0.272303
13.9039 -13.0744 493.024 0.913211 0.287987 -0.288285
14.019 -13.3112 493.162 0.909179 0.300896 -0.287844
14.1408 -13.5517 493.298 0.922421 0.318895 -0.217821
14.232 -13.774 493.437 0.948483 0.294964 -0.115657
14.3175 -13.9932 493.577 0.959492 0.260296 -0.107802
14.3819 -14.1992 493.719 0.961101 0.245145 -0.127238
14.4671 -14.4181 493.858 0.956566 0.237102 -0.1696
14.5511 -14.6353 493.998 0.961125 0.209655 -0.179678
14.6155 -14.8418 494.139 0.968889 0.198568 -0.147732
14.6707 -15.042 494.282 0.973618 0.194373 -0.119528
14.7278 -15.2433 494.424 0.976011 0.18726 -0.11107
14.7788 -15.441 494.567 0.976584 0.188439 -0.103804
14.8287 -15.6383 494.71 0.978809 0.184006 -0.0898641
14.8911 -15.8425 494.851 0.987211 0.147851 -0.0596216
14.9197 -16.0264 494.997 0.992011 0.103207 -0.0725429
14.9202 -16.1951 495.143 0.995655 0.0896972 -0.025019
14.9518 -16.3812 495.287 0.997985 0.0522361 0.0360079
14.9548 -16.5506 495.435 0.996489 0.0416724 -0.0726122
14.9767 -16.7306 495.58 0.97767 0.152275 -0.144825
15.0384 -16.9343 495.721 0.984747 0.173414 -0.0141595
15.058 -17.1131 495.866 0.995518 0.0887724 0.0326142
15.0662 -17.2852 496.012 0.997666 0.0562385 0.0387308
15.0681 -17.4536 496.159 0.995678 0.0684941 0.0627191
15.0634 -17.6182 496.307 0.995825 0.0746033 0.0526096
15.0976 -17.8052 496.451 0.994432 0.0359665 0.0990473
15.061 -17.9511 496.602 0.998189 0.0409763 0.0440351
15.0412 -18.1067 496.751 0.994812 0.0804019 0.0623251
15.0609 -18.2852 496.896 0.985357 0.00564752 0.170412
15.0247 -18.4312 497.046 0.992911 -0.0144451 0.117975
15.0322 -18.6026 497.193 0.994961 0.0189731 0.0984519
14.9837 -18.7414 497.345 0.989701 0.00888695 0.142877
14.9713 -18.9011 497.493 0.976833 -0.000256438 0.214005
14.9234 -19.0403 497.645 0.956315 -0.0173451 0.291822
14.8981 -19.1925 497.795 0.959143 -0.0191602 0.282271
14.8562 -19.3351 497.946 0.950689 -0.0431237 0.307133
14.7961 -19.4672 498.099 0.941139 -0.0644284 0.331823
14.7112 -19.5852 498.255 0.951286 -0.0285243 0.306988
8.2056 -23.2397 505.488 0.374029 -0.568585 0.732676
7.81476 -23.1961 505.684 0.495908 -0.510987 0.702117
7.5892 -23.23 505.859 0.612048 -0.368822 0.699548
7.34333 -23.2585 506.038 0.510422 -0.430406 0.744459
7.0724 -23.2771 506.22 0.440817 -0.471393 0.763851
6.26786 -22.9964 506.469 0.333339 -0.436313 0.835773
5.86337 -22.939 506.669 0.443637 -0.45129 0.77429
5.65015 -22.9883 506.844 0.58365 -0.463031 0.66705
5.38967 -23.0114 507.025 0.29364 -0.535162 0.792071
13.0906 -11.3973 492.364 0.864762 0.366035 -0.34381
13.2418 -11.6564 492.498 0.879737 0.356926 -0.314113
13.4262 -11.9351 492.629 0.863758 0.332451 -0.378679
13.5569 -12.1817 492.766 0.894418 0.326858 -0.305254
13.6745 -12.4205 492.903 0.939848 0.284232 -0.189464
13.7924 -12.6592 493.04 0.920722 0.254604 -0.295717
13.9024 -12.8932 493.178 0.912135 0.260215 -0.316698
13.9944 -13.1163 493.317 0.924709 0.244035 -0.292166
14.0835 -13.3377 493.457 0.928973 0.238225 -0.283299
14.1843 -13.5658 493.596 0.938623 0.230872 -0.256289
14.2784 -13.7899 493.735 0.953556 0.229858 -0.194671
14.3572 -14.0048 493.875 0.952851 0.251772 -0.16937
14.4575 -14.2323 494.013 0.949187 0.265855 -0.168417
14.5323 -14.444 494.155 0.963388 0.244527 -0.109952
14.5855 -14.6441 494.296 0.972009 0.204126 -0.116321
14.6514 -14.8508 494.438 0.973486 0.197086 -0.116111
14.7047 -15.0504 494.58 0.976622 0.194226 -0.0921121
14.7555 -15.2482 494.723 0.977561 0.186462 -0.0980107
14.8123 -15.4495 494.865 0.97718 0.185136 -0.104134
14.8546 -15.6421 495.008 0.980124 0.177967 -0.0876583
14.9147 -15.8451 495.15 0.991517 0.129858 -0.00563568
14.9239 -16.0183 495.296 0.99616 0.0867516 -0.0117996
14.9513 -16.202 495.441 0.994833 0.0936029 -0.0393116
14.9803 -16.3866 495.585 0.997873 0.0633714 0.015283
14.9614 -16.5431 495.735 0.993824 0.103444 -0.0401656
14.9961 -16.7309 495.878 0.981987 0.170349 -0.0817534
15.0622 -16.937 496.019 0.995316 0.0964791 0.00623593
15.0332 -17.0875 496.169 0.995135 0.0565962 0.0806473
15.0421 -17.26 496.315 0.993758 0.0820481 0.07558
15.0471 -17.4302 496.462 0.995479 0.0774297 0.0550074
15.0331 -17.5894 496.611 0.990067 0.089868 0.108123
15.0457 -17.7639 496.757 0.986081 0.0731605 0.149306
15.0476 -17.9322 496.903 0.995814 0.06576 0.0634827
15.0528 -18.1023 497.05 0.995087 0.0129647 0.0981498
15.0138 -18.2468 497.201 0.990399 -0.0164847 0.137254
14.9884 -18.3991 497.351 0.990929 0.0194242 0.132976
14.9874 -18.5655 497.498 0.978559 0.0086609 0.205784
14.9283 -18.6982 497.651 0.958765 0.0113866 0.283973
14.8748 -18.8343 497.804 0.944295 0.0389679 0.326786
14.8143 -18.9664 497.957 0.943861 0.0397949 0.327936
14.7544 -19.0987 498.11 0.943213 -0.011811 0.331979
14.6943 -19.2309 498.264 0.935386 -0.0653243 0.347544
14.6344 -19.3632 498.417 0.960236 -0.0340204 0.277109
8.8041 -23.0628 505.275 0.517409 -0.530278 0.671635
8.45972 -23.0372 505.465 0.464084 -0.465914 0.753359
8.1392 -23.0252 505.652 0.422399 -0.399809 0.813469
7.74515 -22.9724 505.849 0.47882 -0.37913 0.791828
7.53475 -23.0238 506.023 0.609282 -0.377253 0.697463
7.31375 -23.0662 506.198 0.474412 -0.420493 0.773381
6.84478 -22.9721 506.405 0.385093 -0.429061 0.817074
6.09647 -22.724 506.647 0.428169 -0.457977 0.779056
5.84174 -22.7486 506.829 0.499696 -0.467046 0.729501
5.59561 -22.7795 507.008 0.527994 -0.463832 0.711394
5.26193 -22.7619 507.199 0.275426 -0.502799 0.81935
13.0539 -11.1943 492.521 0.86038 0.332829 -0.385967
13.251 -11.4808 492.651 0.843855 0.336284 -0.418117
13.4151 -11.7476 492.784 0.882565 0.325473 -0.339332
13.5209 -11.9796 492.923 0.905413 0.301948 -0.298419
13.6724 -12.2385 493.057 0.908793 0.302695 -0.287178
13.7811 -12.472 493.195 0.919675 0.269505 -0.285597
13.8912 -12.7061 493.333 0.912389 0.25439 -0.320674
14.036 -12.9606 493.467 0.929211 0.266116 -0.256417
14.1266 -13.1829 493.607 0.93572 0.249668 -0.249186
14.2353 -13.4157 493.744 0.949986 0.208253 -0.232717
14.2593 -13.5985 493.89 0.961451 0.192216 -0.196632
14.3461 -13.8183 494.03 0.95442 0.211251 -0.210844
14.3944 -14.0152 494.173 0.953881 0.23644 -0.184952
14.4935 -14.242 494.311 0.954481 0.236227 -0.182109
14.5858 -14.465 494.449 0.970854 0.188911 -0.147499
14.6194 -14.6528 494.594 0.976436 0.174377 -0.127146
14.684 -14.8587 494.736 0.975132 0.17233 -0.139355
14.7387 -15.0585 494.878 0.976961 0.170923 -0.127794
14.7904 -15.2568 495.021 0.978106 0.18203 -0.100869
14.846 -15.4579 495.162 0.982808 0.163543 -0.0856809
14.8673 -15.6382 495.308 0.988897 0.136226 -0.0593792
14.9148 -15.8339 495.45 0.99457 0.103489 -0.0110129
14.9117 -15.9999 495.598 0.991904 0.125509 0.019343
14.9378 -16.1828 495.743 0.99008 0.119126 0.0745058
14.9411 -16.3524 495.89 0.995299 0.0967677 -0.00400931
14.9936 -16.5507 496.032 0.982105 0.151266 -0.112198
15.0252 -16.7366 496.176 0.993066 0.107814 0.0468618
15.0047 -16.8922 496.326 0.994531 0.0437394 0.0948372
15.0176 -17.0671 496.472 0.998151 0.0578171 0.0187354
15.0196 -17.2357 496.619 0.997067 0.0255249 0.0721563
15.0005 -17.3919 496.768 0.996529 0.0388351 0.0736328
15.0031 -17.5607 496.915 0.992824 0.0952565 0.0722979
15.0088 -17.7313 497.061 0.988783 0.117125 0.0926813
15.0221 -17.9062 497.207 0.983737 0.0719697 0.164564
14.9899 -18.0547 497.357 0.987883 -0.0460857 0.1482
14.9682 -18.2099 497.506 0.991998 -0.0997061 0.0774482
14.9088 -18.3425 497.659 0.973965 -0.0840338 0.210547
14.8486 -18.4748 497.813 0.952662 -0.0774841 0.293991
14.7888 -18.6072 497.966 0.966397 -0.0527864 0.251578
14.7738 -18.7661 498.114 0.979593 -0.0328593 0.198286
14.7668 -18.9275 498.263 0.970265 -0.072217 0.23102
14.7068 -19.0599 498.416 0.950627 -0.0851268 0.298432
14.6466 -19.1924 498.57 0.968523 -0.00040455 0.248925
9.67285 -22.7041 504.735 0.573363 -0.491538 0.655473
9.4831 -22.7635 504.906 0.551408 -0.482448 0.680583
9.24198 -22.7963 505.082 0.566714 -0.48472 0.666244
8.96253 -22.8038 505.264 0.590332 -0.390161 0.706599
8.67307 -22.8116 505.447 0.495925 -0.34022 0.798942
8.32259 -22.7825 505.639 0.425155 -0.368688 0.826627
7.94833 -22.7404 505.833 0.42359 -0.428628 0.798028
7.69225 -22.7646 506.013 0.511213 -0.491709 0.7049
7.48363 -22.8155 506.186 0.550284 -0.497032 0.670929
7.14319 -22.7928 506.377 0.391735 -0.476506 0.787074
6.76963 -22.7519 506.572 0.316392 -0.473561 0.821971
6.1273 -22.5599 506.803 0.459683 -0.573902 0.677737
5.81469 -22.555 506.99 0.487895 -0.537731 0.687608
5.53053 -22.5647 507.174 0.447667 -0.490714 0.747525
5.15932 -22.5262 507.37 0.244503 -0.513701 0.822393
13.1189 -11.0516 492.669 0.856958 0.35124 -0.377166
13.2335 -11.2893 492.807 0.865687 0.336179 -0.370905
13.3973 -11.556 492.94 0.887107 0.330828 -0.321859
13.5395 -11.8097 493.075 0.907886 0.297117 -0.295745
13.636 -12.0362 493.214 0.900851 0.317724 -0.295837
13.8066 -12.3064 493.346 0.912067 0.307057 -0.271754
13.9051 -12.5338 493.485 0.935985 0.269609 -0.226367
13.9484 -12.7283 493.629 0.929956 0.309739 -0.198099
14.0963 -12.9847 493.763 0.932858 0.301152 -0.197694
14.1631 -13.1929 493.905 0.955945 0.248592 -0.156114
14.2792 -13.4303 494.041 0.964117 0.207767 -0.165264
14.3298 -13.6287 494.185 0.961387 0.16452 -0.220607
14.4172 -13.8479 494.326 0.94947 0.190687 -0.249288
14.5031 -14.0671 494.465 0.945488 0.203582 -0.25418
14.5629 -14.2714 494.606 0.969831 0.164596 -0.179823
14.6207 -14.4737 494.748 0.973849 0.163053 -0.158213
14.6923 -14.6841 494.888 0.976159 0.159885 -0.1468
14.718 -14.8671 495.034 0.981997 0.145493 -0.120477
14.7718 -15.0677 495.175 0.97725 0.178226 -0.114973
14.8228 -15.2652 495.318 0.980692 0.184356 -0.0652402
14.8795 -15.466 495.46 0.989141 0.13905 -0.047604
14.887 -15.6384 495.607 0.996009 0.0845265 0.0286731
14.8772 -15.8005 495.755 0.99404 0.101033 0.0409472
14.9109 -15.988 495.899 0.988622 0.150424 0.000309409
14.9597 -16.1843 496.042 0.990975 0.134039 -0.00111212
14.9543 -16.3488 496.19 0.990664 0.134142 -0.0243298
14.9896 -16.5371 496.333 0.990193 0.132628 0.043905
15.0126 -16.718 496.478 0.994033 0.0801054 0.0740385
15.0079 -16.8828 496.626 0.997826 0.0570022 0.0330755
15.0171 -17.0556 496.772 0.995954 0.0221977 0.0870826
14.9876 -17.2058 496.923 0.993656 0.0061527 0.112298
14.9703 -17.3632 497.072 0.996072 0.0494243 0.0734667
14.9687 -17.5295 497.219 0.995717 0.0724527 0.0574374
14.9668 -17.6957 497.366 0.993095 0.110178 0.0402857
15.0416 -17.9064 497.505 0.989194 0.0637549 0.132024
14.9831 -18.0396 497.658 0.963906 -0.062697 0.258755
14.9231 -18.1719 497.812 0.953943 -0.108791 0.279567
14.8627 -18.3049 497.965 0.962771 -0.129322 0.237378
14.82 -18.4477 498.116 0.97994 -0.13141 0.149832
14.7682 -18.5819 498.271 0.987446 -0.128294 0.0921487
14.7083 -18.7141 498.424 0.965195 -0.163621 0.204027
14.6132 -18.8278 498.58 0.937658 -0.102937 0.331967
14.5532 -18.9602 498.734 0.959285 0.0274037 0.281108
14.5572 -19.1295 498.88 0.987045 0.148251 0.0613534
10.9445 -22.2411 503.852 0.685277 -0.390786 0.614558
10.738 -22.2915 504.025 0.630948 -0.444362 0.635962
10.5133 -22.3316 504.199 0.614031 -0.449816 0.648561
10.3359 -22.3986 504.368 0.636752 -0.458852 0.619679
10.1574 -22.4651 504.537 0.628506 -0.496265 0.598917
9.93389 -22.5056 504.711 0.574114 -0.463894 0.674682
9.6515 -22.511 504.894 0.578811 -0.388963 0.716719
9.39817 -22.5379 505.072 0.587803 -0.321749 0.742271
9.11726 -22.5496 505.254 0.540699 -0.31335 0.780677
8.83988 -22.56 505.436 0.505696 -0.362405 0.782901
8.53584 -22.5568 505.621 0.455956 -0.446159 0.770095
8.24494 -22.561 505.805 0.420548 -0.540515 0.728686
8.0082 -22.5959 505.982 0.446339 -0.605706 0.658712
7.74492 -22.616 506.163 0.503323 -0.579009 0.641416
7.44611 -22.6164 506.348 0.464783 -0.510386 0.723521
7.12621 -22.6051 506.536 0.379163 -0.535338 0.754751
6.77855 -22.5786 506.728 0.221288 -0.591802 0.775114
6.08412 -22.3587 506.965 0.269459 -0.558736 0.784351
5.78373 -22.3591 507.151 0.464347 -0.449854 0.762898
5.46065 -22.3471 507.341 0.400113 -0.464328 0.790132
5.03965 -22.2808 507.543 0.243357 -0.519676 0.818972
13.0589 -10.8346 492.828 0.86041 0.376999 -0.342879
13.2241 -11.1025 492.962 0.885521 0.370304 -0.280585
13.3844 -11.3672 493.095 0.885556 0.345742 -0.310245
13.5081 -11.6101 493.232 0.913605 0.288413 -0.286608
13.6207 -11.8462 493.369 0.8966 0.286113 -0.338006
13.7604 -12.0983 493.504 0.910958 0.30564 -0.277018
13.8423 -12.316 493.645 0.951751 0.272645 -0.140834
13.9519 -12.5499 493.783 0.923803 0.272509 -0.268936
14.0869 -12.7987 493.918 0.921308 0.261082 -0.288145
14.1739 -13.019 494.057 0.943155 0.23602 -0.233995
14.2645 -13.2413 494.197 0.945584 0.237064 -0.222869
14.36 -13.4664 494.335 0.965505 0.212394 -0.15063
14.3988 -13.6579 494.48 0.955705 0.223652 -0.191331
14.5003 -13.887 494.616 0.954846 0.228678 -0.189674
14.57 -14.0963 494.757 0.973953 0.184819 -0.131372
14.6128 -14.2891 494.902 0.975314 0.170394 -0.140456
14.663 -14.4872 495.045 0.977606 0.17563 -0.115936
14.7261 -14.6925 495.186 0.986682 0.146011 -0.0716846
14.7382 -14.8678 495.333 0.984368 0.137084 -0.110581
14.7933 -15.0678 495.475 0.977072 0.185278 -0.104887
14.8427 -15.2649 495.618 0.987199 0.159031 -0.012171
14.8565 -15.4413 495.764 0.995861 0.0744211 0.0521778
14.8653 -15.6144 495.91 0.997348 0.0680269 0.0258813
14.8644 -15.7817 496.058 0.990658 0.122 -0.0609263
14.9101 -15.9763 496.201 0.989824 0.141366 -0.0162795
14.936 -16.1592 496.345 0.991557 0.124669 0.035659
14.9486 -16.3342 496.491 0.99266 0.12048 -0.0105238
14.9719 -16.5155 496.636 0.992206 0.116485 0.0442607
14.9869 -16.6918 496.782 0.989566 0.103892 0.099828
14.9791 -16.8548 496.93 0.986253 0.0731993 0.148143
14.966 -17.0146 497.079 0.986452 0.0381689 0.159548
14.9537 -17.1749 497.227 0.997878 0.025529 0.0599029
14.9663 -17.3496 497.373 0.99876 0.0290409 0.040448
14.9528 -17.5091 497.521 0.99656 0.0749053 0.0354666
14.9242 -17.6598 497.672 0.985931 0.0939041 0.138284
14.9163 -17.8224 497.819 0.95283 0.0252818 0.302451
14.865 -17.9599 497.972 0.962419 -0.0498525 0.266952
14.8392 -18.1122 498.122 0.977871 -0.086844 0.190332
14.7997 -18.2564 498.273 0.984089 -0.0579219 0.16797
14.7961 -18.4207 498.421 0.968815 -0.0371154 0.24499
14.7358 -18.553 498.574 0.902257 -0.121846 0.413626
14.6012 -18.6428 498.736 0.906122 -0.146461 0.396852
14.5412 -18.7751 498.889 0.986641 -0.0193063 0.161759
14.5471 -18.9456 499.035 0.997581 0.0659093 0.0220889
11.2833 -21.9213 503.673 0.704321 -0.42767 0.566596
11.0796 -21.973 503.845 0.697805 -0.379642 0.607404
10.913 -22.0454 504.012 0.699346 -0.397299 0.594196
10.7488 -22.1199 504.179 0.629947 -0.43107 0.646023
10.5042 -22.1462 504.356 0.635858 -0.429074 0.641545
10.3207 -22.2107 504.526 0.676585 -0.369133 0.63716
10.0888 -22.2487 504.701 0.608635 -0.31837 0.726776
9.80553 -22.2562 504.883 0.549492 -0.300077 0.779752
9.53558 -22.2714 505.064 0.539442 -0.349529 0.766049
9.27364 -22.2912 505.243 0.537188 -0.416736 0.733321
9.02425 -22.3183 505.422 0.533206 -0.460934 0.709388
8.79979 -22.3596 505.597 0.509989 -0.532747 0.675346
8.56504 -22.3951 505.774 0.478373 -0.580282 0.659114
8.31748 -22.4237 505.952 0.458662 -0.592482 0.662264
7.97995 -22.4019 506.142 0.4821 -0.482499 0.731283
7.67445 -22.3983 506.329 0.496407 -0.369715 0.785424
7.36467 -22.3921 506.515 0.494112 -0.362415 0.790259
7.10393 -22.4144 506.696 0.428129 -0.44593 0.786035
6.7101 -22.362 506.894 0.218564 -0.511198 0.831208
6.04846 -22.1602 507.127 0.218915 -0.523149 0.823645
5.63615 -22.0981 507.328 0.436711 -0.494431 0.751546
5.41039 -22.1403 507.505 0.363297 -0.534677 0.762978
13.0337 -10.6381 492.985 0.866252 0.340565 -0.365543
13.1805 -10.8952 493.12 0.866768 0.363669 -0.341259
13.3665 -11.1755 493.251 0.874868 0.3608 -0.323155
13.5282 -11.441 493.384 0.903888 0.316405 -0.28788
13.6486 -11.6819 493.521 0.918414 0.270025 -0.289142
13.7271 -11.8977 493.662 0.928836 0.269799 -0.253913
13.8472 -12.1381 493.798 0.926992 0.282613 -0.246609
13.9665 -12.3779 493.935 0.917933 0.289369 -0.271412
14.064 -12.6047 494.074 0.931613 0.299703 -0.205611
14.1634 -12.8324 494.212 0.947634 0.280067 -0.15347
14.2379 -13.0453 494.353 0.95431 0.252255 -0.160186
14.3003 -13.2509 494.495 0.961285 0.235065 -0.143787
14.3949 -13.4754 494.634 0.957209 0.226109 -0.180626
14.468 -13.6872 494.774 0.955875 0.237313 -0.173163
14.5385 -13.8973 494.915 0.970081 0.209523 -0.122652
14.6043 -14.1045 495.057 0.97936 0.171114 -0.107584
14.6466 -14.2977 495.2 0.978503 0.174159 -0.110459
14.6968 -14.4955 495.343 0.98092 0.176781 -0.0808992
14.7597 -14.7005 495.485 0.989694 0.137536 -0.0398832
14.7568 -14.8673 495.632 0.984553 0.144613 -0.0987004
14.8264 -15.0763 495.773 0.985881 0.156148 -0.0604745
14.8499 -15.2581 495.918 0.996169 0.0833572 0.026421
14.8466 -15.4244 496.066 0.996418 0.0820518 0.0204378
14.8875 -15.6168 496.208 0.995697 0.0878186 -0.0295746
14.8827 -15.7811 496.357 0.994929 0.0834692 -0.0561105
14.9097 -15.9647 496.502 0.992672 0.117184 -0.0294862
14.9477 -16.1547 496.645 0.995069 0.0979523 0.0156094
14.9342 -16.3145 496.794 0.996899 0.0710189 0.0338979
14.9385 -16.4847 496.941 0.995739 0.0647359 0.065667
14.9319 -16.6484 497.089 0.994711 0.051232 0.0890227
14.9405 -16.821 497.235 0.996902 0.0549061 0.056311
14.9611 -17.0005 497.38 0.996465 0.0478868 0.06902
14.9313 -17.1506 497.53 0.993552 0.0400511 0.106064
14.9249 -17.3143 497.678 0.990892 0.0346378 0.130126
14.9175 -17.4774 497.826 0.990737 0.0034586 0.135748
14.8818 -17.624 497.977 0.986499 0.0197825 0.162566
14.8907 -17.7965 498.123 0.981656 -0.00306878 0.190637
14.8403 -17.9344 498.275 0.974193 -0.0737331 0.213334
14.7802 -18.0667 498.429 0.964973 -0.081875 0.249245
14.6792 -18.1754 498.587 0.952887 -0.0644135 0.296406
14.6171 -18.3066 498.741 0.916413 -0.103221 0.386693
14.5568 -18.4389 498.895 0.935927 -0.144064 0.321381
14.522 -18.5859 499.045 0.99493 -0.0602829 0.0805064
14.5251 -18.7548 499.192 0.998298 -0.0141332 0.0565839
14.5013 -18.9081 499.341 0.984038 -0.0556691 0.169026
14.4413 -19.0405 499.495 0.949866 -0.103945 0.294873
14.3387 -19.1483 499.653 0.890577 -0.121954 0.438177
14.2781 -19.2805 499.807 0.917341 -0.107477 0.383321
14.2302 -19.4197 499.959 0.951122 -0.114846 0.286665
14.1698 -19.5518 500.113 0.921266 -0.16557 0.351931
14.047 -19.6481 500.273 0.89727 -0.182197 0.402133
13.9566 -19.7631 500.43 0.90092 -0.155644 0.405115
13.8535 -19.8708 500.589 0.887941 -0.145426 0.436362
13.7143 -19.9578 500.752 0.876586 -0.133895 0.462244
13.6516 -20.0886 500.906 0.901133 -0.129222 0.413836
13.5899 -20.2202 501.059 0.850379 -0.230374 0.473058
13.4168 -20.2879 501.226 0.874411 -0.235174 0.42438
13.3544 -20.4191 501.38 0.920723 -0.157346 0.357088
13.251 -20.5267 501.539 0.874758 -0.171403 0.453232
13.1184 -20.6178 501.701 0.879613 -0.106639 0.463583
13.0434 -20.7418 501.857 0.861742 -0.108939 0.495514
12.9238 -20.8403 502.017 0.744418 -0.246878 0.620397
12.7689 -20.9189 502.182 0.728163 -0.326816 0.602469
12.5895 -20.9834 502.35 0.796201 -0.307454 0.521091
12.4791 -21.0901 502.509 0.776631 -0.325774 0.539181
12.3199 -21.1637 502.676 0.801585 -0.36472 0.473753
12.2148 -21.2715 502.835 0.795026 -0.359525 0.488544
12.0475 -21.3438 503.002 0.750779 -0.388332 0.534349
11.9059 -21.429 503.166 0.765303 -0.428144 0.480629
11.7628 -21.5147 503.33 0.780921 -0.447653 0.435626
11.6267 -21.6042 503.493 0.76741 -0.436347 0.469769
11.4482 -21.6678 503.662 0.703265 -0.383088 0.598883
11.2355 -21.7136 503.835 0.672285 -0.361518 0.646017
11.0672 -21.7882 504.002 0.714714 -0.356431 0.601781
10.9036 -21.8625 504.169 0.694734 -0.344977 0.631138
10.658 -21.8909 504.346 0.643192 -0.344543 0.683809
10.4746 -21.9543 504.515 0.623873 -0.338469 0.70443
10.2075 -21.9707 504.695 0.600885 -0.336098 0.725242
9.96052 -21.999 504.873 0.548494 -0.382604 0.743484
9.69087 -22.0145 505.053 0.560258 -0.442721 0.700078
9.53436 -22.0928 505.22 0.555137 -0.528252 0.642473
9.27612 -22.1147 505.399 0.513498 -0.618907 0.594368
9.07546 -22.1691 505.572 0.522566 -0.650666 0.550962
8.82252 -22.1943 505.751 0.519085 -0.592402 0.616125
8.55403 -22.2109 505.932 0.515023 -0.474335 0.713973
8.23688 -22.2003 506.119 0.439679 -0.428469 0.789365
7.84259 -22.1466 506.317 0.436538 -0.377096 0.816843
7.5305 -22.1398 506.504 0.501589 -0.30716 0.80874
7.26167 -22.1562 506.686 0.537147 -0.320251 0.780328
7.00727 -22.1807 506.866 0.417496 -0.380628 0.825118
6.50152 -22.0668 507.078 0.257935 -0.43338 0.863511
6.00362 -21.9564 507.29 0.244484 -0.535176 0.808588
5.6688 -21.9375 507.481 0.375769 -0.670795 0.6394
5.39954 -21.9554 507.664 0.30622 -0.621038 0.721485
13.0208 -10.4489 493.14 0.874995 0.310803 -0.371195
13.1838 -10.7158 493.274 0.854356 0.310382 -0.416821
13.3343 -10.975 493.408 0.860395 0.334573 -0.384424
13.4883 -11.2362 493.542 0.890121 0.328855 -0.315498
13.6182 -11.4828 493.678 0.92772 0.270564 -0.257157
13.7139 -11.7089 493.817 0.930188 0.240437 -0.277381
13.8218 -11.9423 493.955 0.917837 0.254963 -0.304253
13.918 -12.1685 494.094 0.931941 0.246407 -0.266026
14.0047 -12.3889 494.234 0.93373 0.259614 -0.246473
14.121 -12.6268 494.37 0.939006 0.267112 -0.216607
14.2157 -12.8518 494.509 0.953237 0.25072 -0.168756
14.3119 -13.0775 494.648 0.952993 0.236233 -0.189731
14.3854 -13.2897 494.788 0.960482 0.209858 -0.182848
14.4364 -13.4886 494.931 0.957751 0.217767 -0.187859
14.5461 -13.7216 495.069 0.964763 0.197564 -0.173786
14.5727 -13.906 495.214 0.979541 0.157139 -0.125728
14.6385 -14.1126 495.356 0.982629 0.153884 -0.103734
14.6632 -14.2961 495.5 0.979546 0.185959 -0.0768696
14.7197 -14.4977 495.642 0.982151 0.18618 -0.0267595
14.7643 -14.6921 495.785 0.988812 0.14128 -0.047861
14.7885 -14.8745 495.93 0.985877 0.152196 -0.0698768
14.8302 -15.0671 496.074 0.992985 0.108027 0.0480666
14.8161 -15.2269 496.223 0.99226 0.121811 0.0241093
14.8662 -15.424 496.365 0.990859 0.134861 -0.00342576
14.8816 -15.6004 496.512 0.99737 0.0724489 0.0022158
14.8934 -15.776 496.657 0.995119 0.0891747 -0.0422667
14.906 -15.9512 496.803 0.994177 0.107181 0.0111463
14.9392 -16.1385 496.947 0.997352 0.057721 0.0442467
14.9284 -16.2998 497.096 0.997793 0.0442068 0.0495494
14.942 -16.4754 497.241 0.99498 0.0657625 0.0754309
14.9261 -16.6338 497.39 0.995835 0.0610065 0.0677518
14.9139 -16.7942 497.539 0.994701 0.0432801 0.0932617
14.9082 -16.9585 497.687 0.994365 0.0206656 0.103976
14.9013 -17.1219 497.835 0.997018 0.0158549 0.0755231
14.8875 -17.2813 497.983 0.987345 -0.0250467 0.156596
14.8338 -17.4175 498.136 0.987193 0.0154745 0.158778
14.8279 -17.5814 498.284 0.983002 0.0466685 0.177562
14.7972 -17.7309 498.434 0.960488 -0.0303533 0.276661
14.7454 -17.8681 498.587 0.946621 -0.0881467 0.310064
14.7079 -18.0137 498.738 0.950475 -0.162663 0.264835
14.648 -18.1462 498.891 0.958821 -0.215214 0.185325
14.5924 -18.2812 499.045 0.970797 -0.192884 0.14265
14.5435 -18.4201 499.197 0.992406 -0.101631 0.0692931
14.5199 -18.5736 499.346 0.994922 -0.0464947 0.0892615
14.4817 -18.7185 499.497 0.972266 -0.0763774 0.221054
14.4214 -18.8509 499.651 0.913602 -0.1622 0.372856
14.3051 -18.9508 499.811 0.915119 -0.192253 0.354395
14.2431 -19.0821 499.965 0.955008 -0.127336 0.267854
14.1709 -19.2075 500.12 0.947477 -0.104236 0.302362
14.0977 -19.3324 500.275 0.909323 -0.160164 0.384032
14.007 -19.4472 500.432 0.887318 -0.218816 0.405938
13.9132 -19.5602 500.59 0.890211 -0.260353 0.373819
13.806 -19.6656 500.749 0.87945 -0.277179 0.386962
13.7408 -19.7951 500.903 0.903473 -0.291733 0.314052
13.6416 -19.9051 501.061 0.926101 -0.279628 0.253267
13.548 -20.0183 501.219 0.873675 -0.285688 0.393795
13.451 -20.1296 501.377 0.866264 -0.321816 0.382127
13.3471 -20.2371 501.536 0.892544 -0.324321 0.313337
13.2324 -20.3383 501.696 0.842449 -0.333538 0.423122
13.1044 -20.432 501.858 0.879842 -0.292199 0.37483
13.0262 -20.5542 502.013 0.879907 -0.309345 0.360652
12.8867 -20.6415 502.177 0.79517 -0.343703 0.499572
12.7401 -20.7247 502.341 0.755313 -0.368762 0.541773
12.5957 -20.8078 502.505 0.793269 -0.366054 0.486547
12.468 -20.9033 502.667 0.819309 -0.363142 0.44369
12.3487 -21.0015 502.828 0.788141 -0.4116 0.457623
12.1715 -21.0666 502.996 0.789589 -0.350057 0.503993
12.0503 -21.1664 503.157 0.795366 -0.305065 0.523764
11.9166 -21.2562 503.32 0.800641 -0.266594 0.536565
11.7801 -21.3467 503.483 0.776384 -0.218178 0.591292
11.6013 -21.4122 503.652 0.703303 -0.248199 0.666155
11.3656 -21.4455 503.827 0.67732 -0.248383 0.692491
11.213 -21.526 503.993 0.697801 -0.294822 0.652805
11.0065 -21.5761 504.165 0.694943 -0.343962 0.631462
10.8043 -21.6287 504.337 0.665128 -0.328746 0.670471
10.6167 -21.6915 504.506 0.623461 -0.374177 0.686504
10.3625 -21.7138 504.685 0.597477 -0.414549 0.686418
10.157 -21.7642 504.858 0.585373 -0.479293 0.653924
9.96677 -21.8241 505.028 0.559839 -0.564193 0.606849
9.75857 -21.8738 505.201 0.580288 -0.614195 0.534818
9.54958 -21.9233 505.374 0.605688 -0.569232 0.555983
9.34738 -21.9768 505.547 0.579582 -0.502058 0.64189
9.09538 -22.0023 505.726 0.537484 -0.456346 0.709125
8.77558 -21.9898 505.913 0.485464 -0.399554 0.777613
8.43128 -21.9637 506.104 0.468118 -0.397182 0.789375
8.12482 -21.9591 506.29 0.397981 -0.439901 0.805045
7.7252 -21.9024 506.489 0.39994 -0.446172 0.800611
7.42284 -21.9019 506.675 0.514155 -0.402904 0.757174
7.19063 -21.9394 506.852 0.503608 -0.404921 0.763163
6.80649 -21.8909 507.049 0.361128 -0.448385 0.817642
6.40652 -21.8349 507.248 0.288786 -0.511437 0.809342
6.06309 -21.8109 507.44 0.32035 -0.591671 0.739798
5.7359 -21.7962 507.63 0.351112 -0.616425 0.704798
5.29079 -21.7158 507.836 0.240341 -0.572336 0.784008
13.0697 -10.2965 493.29 0.868903 0.340838 -0.35894
13.1891 -10.5375 493.427 0.883167 0.338437 -0.324771
13.3497 -10.8028 493.56 0.880698 0.338184 -0.331667
13.4844 -11.0526 493.696 0.882752 0.317829 -0.346025
13.645 -11.3176 493.829 0.914682 0.2809 -0.290607
13.7268 -11.5356 493.97 0.931689 0.265282 -0.248154
13.8511 -11.7788 494.106 0.927759 0.266879 -0.260841
13.9448 -12.0036 494.245 0.938711 0.231139 -0.255725
14.041 -12.2298 494.384 0.935494 0.210197 -0.284022
14.1121 -12.441 494.525 0.939766 0.223373 -0.258738
14.1954 -12.6593 494.665 0.944713 0.240042 -0.223378
14.2783 -12.8773 494.805 0.947278 0.232397 -0.22058
14.3715 -13.1011 494.944 0.961731 0.218632 -0.165148
14.4427 -13.312 495.085 0.956489 0.232756 -0.175934
14.523 -13.528 495.224 0.964954 0.226623 -0.13231
14.5801 -13.7303 495.367 0.981138 0.174559 -0.0830508
14.6187 -13.9207 495.512 0.989761 0.119399 -0.0782083
14.626 -14.0944 495.658 0.986492 0.131009 -0.0983351
14.6965 -14.3042 495.798 0.97652 0.183823 -0.112332
14.741 -14.4987 495.941 0.987358 0.153206 -0.04065
14.7688 -14.6833 496.086 0.990818 0.131644 -0.0307992
14.7916 -14.8649 496.232 0.995689 0.0906157 0.0197876
14.7935 -15.0342 496.379 0.99229 0.123143 0.0139867
14.8366 -15.2275 496.522 0.98084 0.194804 0.00189692
14.8777 -15.4197 496.665 0.99088 0.127377 0.043945
14.8747 -15.5859 496.813 0.995359 0.0884685 0.037861
14.8928 -15.7643 496.958 0.994547 0.100957 -0.026169
14.9176 -15.9467 497.103 0.998477 0.0499583 0.0234145
14.8908 -16.0988 497.253 0.995261 0.031943 0.0918402
14.8811 -16.2609 497.402 0.996158 0.0644148 0.0593278
14.9018 -16.4407 497.547 0.994616 0.0672046 0.0788774
14.9077 -16.6118 497.693 0.995454 0.0488944 0.0817409
14.9036 -16.7772 497.841 0.99928 -0.00716355 0.0372656
14.8936 -16.9387 497.989 0.997087 -0.0753557 0.011828
14.8692 -17.092 498.139 0.9854 -0.133999 0.105032
14.817 -17.2291 498.292 0.989176 -0.0973775 0.109768
14.8032 -17.3885 498.44 0.993546 -0.0260869 0.110394
14.7709 -17.5372 498.591 0.973723 -0.0528948 0.221509
14.7167 -17.673 498.744 0.977415 -0.0675031 0.200259
14.6964 -17.8286 498.893 0.976469 -0.101013 0.190538
14.637 -17.9614 499.047 0.96172 -0.140111 0.235508
14.5835 -18.0977 499.2 0.965185 -0.132873 0.225305
14.5238 -18.2304 499.353 0.981294 -0.0772182 0.176349
14.5017 -18.3848 499.503 0.981695 -0.0514384 0.183385
14.4422 -18.5176 499.656 0.961931 -0.100243 0.254243
14.3821 -18.6499 499.81 0.931662 -0.165513 0.323438
14.3154 -18.7786 499.964 0.918811 -0.187159 0.347501
14.2268 -18.8947 500.121 0.936814 -0.125612 0.326497
14.166 -19.0266 500.275 0.940568 -0.097358 0.325351
14.1055 -19.1588 500.428 0.923154 -0.145104 0.355992
14.0132 -19.2727 500.586 0.910885 -0.164791 0.378327
13.9447 -19.4003 500.74 0.890181 -0.203684 0.407541
13.8234 -19.4975 500.901 0.906512 -0.199891 0.371858
13.7576 -19.6268 501.056 0.913323 -0.159006 0.374912
13.6484 -19.7311 501.215 0.885432 -0.191412 0.423523
13.5526 -19.843 501.373 0.88974 -0.205849 0.407418
13.4469 -19.9494 501.532 0.883249 -0.151224 0.443849
13.3597 -20.0664 501.689 0.851922 -0.134294 0.506156
13.2207 -20.1537 501.852 0.839353 -0.181935 0.512236
13.1246 -20.2657 502.01 0.884768 -0.158553 0.438232
13.034 -20.3808 502.167 0.838983 -0.181664 0.512938
12.8635 -20.4503 502.334 0.788353 -0.21896 0.57494
12.7478 -20.5512 502.495 0.780164 -0.234082 0.580129
12.5669 -20.6149 502.663 0.810625 -0.229023 0.538921
12.4851 -20.7353 502.82 0.836082 -0.220108 0.502513
12.3236 -20.8102 502.986 0.752055 -0.25785 0.606569
12.1426 -20.8741 503.154 0.762269 -0.246425 0.598515
12.0008 -20.9604 503.318 0.770944 -0.249492 0.586002
11.7911 -21.0081 503.491 0.746071 -0.23169 0.624257
11.6216 -21.0788 503.658 0.744719 -0.200807 0.636451
11.4568 -21.1523 503.825 0.685657 -0.242541 0.68633
11.2719 -21.2149 503.994 0.72807 -0.282186 0.624728
11.1596 -21.32 504.154 0.731747 -0.35556 0.581484
10.9585 -21.3718 504.326 0.655987 -0.414672 0.630657
10.7728 -21.4329 504.496 0.663065 -0.445656 0.601445
10.5736 -21.4874 504.668 0.624133 -0.480957 0.615742
10.3811 -21.5457 504.839 0.622706 -0.518714 0.585809
10.2147 -21.6189 505.006 0.635964 -0.520607 0.569665
9.98222 -21.6548 505.182 0.629863 -0.484481 0.607084
9.79011 -21.7136 505.353 0.604618 -0.425566 0.673299
9.5041 -21.7179 505.537 0.588223 -0.371569 0.718283
9.25279 -21.7428 505.715 0.561339 -0.329214 0.759287
7.09846 -21.7079 507.021 0.467072 -0.431198 0.771953
6.78702 -21.7013 507.209 0.335504 -0.577841 0.744
6.41441 -21.6606 507.405 0.305477 -0.614227 0.727605
6.01282 -21.6039 507.604 0.389122 -0.466773 0.794171
5.6537 -21.5711 507.799 0.372783 -0.409079 0.832879
13.0008 -10.0737 493.451 0.877041 0.335694 -0.343669
13.1401 -10.3267 493.586 0.880155 0.334956 -0.33635
13.3206 -10.604 493.718 0.867798 0.335639 -0.366433
13.4785 -10.8678 493.851 0.88965 0.334599 -0.31075
13.5966 -11.1076 493.988 0.924753 0.326306 -0.195846
13.6864 -11.3306 494.128 0.93225 0.300043 -0.202196
13.8084 -11.5724 494.264 0.922558 0.297953 -0.245175
13.9197 -11.8078 494.402 0.93333 0.291242 -0.209936
14.0303 -12.0427 494.539 0.950323 0.251314 -0.18365
14.0928 -12.2489 494.681 0.954041 0.245685 -0.171594
14.2006 -12.4815 494.819 0.945043 0.26235 -0.195108
14.2887 -12.703 494.958 0.955106 0.232387 -0.183765
14.3425 -12.9037 495.101 0.96295 0.218884 -0.157535
14.4082 -13.1113 495.242 0.962062 0.240931 -0.128019
14.4774 -13.3206 495.384 0.96155 0.248797 -0.116286
14.5572 -13.5361 495.524 0.97188 0.221592 -0.0796659
14.6132 -13.7384 495.665 0.986701 0.159572 -0.0309418
14.6518 -13.9296 495.809 0.991388 0.111569 -0.0685655
14.6594 -14.1032 495.955 0.980727 0.149726 -0.125526
14.7302 -14.3124 496.097 0.986728 0.149052 -0.0644242
14.7401 -14.4867 496.243 0.991945 0.115396 -0.0522332
14.7964 -14.6881 496.385 0.998403 0.0545049 0.0148707
14.7442 -14.8257 496.538 0.996097 0.074867 0.0467546
14.7754 -15.0122 496.682 0.978331 0.20419 -0.0342824
