17.944 -43.9391 478.42 0.993644 0.0829782 0.0760684
17.9379 -44.1259 478.56 0.989333 0.0485587 0.137337
17.9089 -44.2932 478.7 0.990616 0.0233861 0.134657
17.9108 -44.4827 478.843 0.99286 0.0456591 0.110205
17.9139 -44.6725 478.986 0.994463 0.0299303 0.100741
17.8962 -44.8482 479.127 0.995022 0.0483082 0.0871626
17.8965 -45.0362 479.269 0.992648 0.0805593 0.0903376
17.8996 -45.2259 479.412 0.973934 0.0355226 0.224033
17.8538 -45.382 479.549 0.938931 -0.0354461 0.342276
17.7925 -45.5275 479.685 0.955304 -0.0649098 0.28841
17.7505 -45.6862 479.823 0.974525 -0.0930021 0.204086
17.6992 -45.8384 479.96 0.976998 -0.0731586 0.200304
17.6876 -46.0177 480.101 0.971805 -0.0731893 0.224138
17.6083 -46.1508 480.235 0.971781 -0.0802391 0.221819
17.576 -46.3158 480.374 0.976231 -0.0621896 0.20762
17.549 -46.4845 480.513 0.968514 -0.129606 0.212561
17.4893 -46.6308 480.649 0.957153 -0.138239 0.254458
17.4271 -46.7753 480.784 0.945092 -0.116329 0.305398
17.357 -46.9144 480.919 0.911909 -0.17963 0.368992
17.2698 -47.0419 481.052 0.94043 -0.148326 0.305927
17.2216 -47.1959 481.189 0.937621 -0.104957 0.331438
17.1267 -47.318 481.321 0.928972 -0.0720294 0.363074
17.0833 -47.4752 481.458 0.967663 0.00162515 0.25224
17.0555 -47.643 481.597 0.939564 -0.0774601 0.333497
16.9607 -47.7652 481.729 0.886572 -0.186069 0.423519
16.8762 -47.8942 481.862 0.886779 -0.20904 0.412221
16.7791 -48.015 481.994 0.834658 -0.240263 0.495599
16.6733 -48.1297 482.125 0.807515 -0.267645 0.525629
16.5488 -48.2319 482.254 0.84422 -0.238058 0.480229
16.4516 -48.3527 482.387 0.872266 -0.195486 0.448261
16.362 -48.4783 482.519 0.887146 -0.177137 0.426138
16.2678 -48.6009 482.651 0.883748 -0.185973 0.429422
16.171 -48.7218 482.783 0.872281 -0.22687 0.433193
16.0739 -48.8425 482.915 0.872242 -0.249634 0.420567
15.9725 -48.96 483.046 0.850073 -0.234175 0.471739
15.8708 -49.0778 483.178 0.840975 -0.213816 0.497034
15.763 -49.1914 483.309 0.816631 -0.241631 0.524145
15.6247 -49.2843 483.437 0.738635 -0.273045 0.616331
15.4774 -49.3714 483.564 0.677367 -0.276312 0.681781
15.3235 -49.454 483.691 0.75319 -0.258699 0.604798
15.2106 -49.5642 483.821 0.822495 -0.240778 0.515293
15.0792 -49.6621 483.95 0.759281 -0.279705 0.587587
14.9393 -49.7542 484.078 0.753864 -0.318116 0.574884
14.8266 -49.8649 484.209 0.806995 -0.33366 0.487267
14.7173 -49.977 484.339 0.81491 -0.336358 0.472001
14.5697 -50.0644 484.467 0.747235 -0.328157 0.577887
14.3922 -50.1302 484.592 0.581571 -0.331868 0.742724
14.1872 -50.1806 484.714 0.558728 -0.338254 0.757237
14.0274 -50.2597 484.84 0.718319 -0.305248 0.625174
13.8942 -50.3567 484.969 0.71933 -0.287296 0.632476
13.7428 -50.4416 485.096 0.661779 -0.329677 0.673321
13.583 -50.5209 485.223 0.677902 -0.37446 0.632636
13.4207 -50.5987 485.349 0.694102 -0.390052 0.605047
13.2583 -50.6714 485.479 0.645086 -0.413864 0.642324
13.0505 -50.7241 485.598 0.631405 -0.416951 0.653819
12.9128 -50.8173 485.728 0.592442 -0.418331 0.688485
12.6668 -50.8404 485.847 0.483192 -0.430658 0.762272
12.4459 -50.8779 485.969 0.456316 -0.436089 0.77563
12.2062 -50.9088 486.087 0.486456 -0.427807 0.761802
12.0075 -50.9616 486.212 0.554288 -0.436369 0.708765
11.8104 -51.017 486.335 0.563605 -0.469827 0.67942
11.6216 -51.078 486.46 0.544495 -0.484154 0.684923
11.4142 -51.1268 486.583 0.528934 -0.463059 0.7112
11.1903 -51.1645 486.705 0.497674 -0.451384 0.740658
10.9693 -51.2048 486.827 0.383269 -0.514285 0.767213
10.6685 -51.1925 486.943 0.241378 -0.57557 0.781317
10.3365 -51.1598 487.056 0.289928 -0.552609 0.781387
10.0643 -51.1666 487.174 0.402845 -0.461778 0.790239
9.82684 -51.1958 487.296 0.417766 -0.457259 0.785102
9.57361 -51.2129 487.417 0.450094 -0.471583 0.758304
9.36174 -51.2625 487.539 0.421297 -0.512427 0.748283
9.10002 -51.2773 487.658 0.396218 -0.518813 0.757525
8.85128 -51.3002 487.779 0.44621 -0.488215 0.750028
8.60562 -51.3255 487.9 0.344942 -0.51085 0.787431
8.28426 -51.3012 488.015 0.157759 -0.54109 0.826035
7.86592 -51.2138 488.123 0.0720659 -0.555458 0.828416
7.39119 -51.0899 488.226 0.116009 -0.528588 0.840914
7.04317 -51.049 488.339 0.169672 -0.501523 0.848343
6.62576 -50.9631 488.447 0.124215 -0.513704 0.848928
6.19388 -50.8681 488.555 0.084006 -0.522124 0.848722
5.65595 -50.7043 488.654 0.0866367 -0.505498 0.858467
5.34868 -50.6911 488.771 0.0752633 -0.541416 0.837379
4.80196 -50.5223 488.87 -0.00815659 -0.579186 0.815155
4.26159 -50.358 488.97 -0.0334965 -0.537233 0.842768
17.4738 -40.8068 476.505 0.974894 0.175095 -0.13756
17.5247 -41.0321 476.655 0.970663 0.185522 -0.152956
17.6078 -41.2796 476.808 0.964276 0.192105 -0.182394
17.6897 -41.5261 476.961 0.983415 0.159863 -0.0856633
17.7056 -41.7282 477.105 0.982138 0.186301 -0.026406
17.7787 -41.9666 477.258 0.981183 0.188389 -0.0423057
17.8161 -42.1812 477.407 0.990262 0.138453 0.014597
17.842 -42.3887 477.552 0.99318 0.111611 0.0337057
17.8425 -42.5781 477.696 0.994054 0.107585 0.0167984
17.8592 -42.7785 477.841 0.990372 0.137054 0.0194906
17.9119 -43.0036 477.99 0.991427 0.125928 0.034864
17.907 -43.1878 478.134 0.994628 0.093449 0.0445309
17.9287 -43.3934 478.277 0.996155 0.0595898 0.0642137
17.9174 -43.5731 478.42 0.996899 0.0247941 0.0746836
17.8969 -43.7473 478.56 0.996517 0.0570444 0.0608242
17.924 -43.9543 478.706 0.9914 0.0590913 0.116768
17.9095 -44.1317 478.848 0.99392 0.00171335 0.110088
17.8895 -44.3073 478.988 0.999373 0.00934996 0.0341413
17.8916 -44.4963 479.131 0.995181 0.0185431 0.0962855
17.8631 -44.6649 479.27 0.995047 0.0206686 0.0972315
17.869 -44.8565 479.413 0.994191 0.0280524 0.103909
17.8211 -45.0121 479.55 0.972738 0.0127837 0.231556
17.7881 -45.1763 479.69 0.961665 -0.0150553 0.273815
17.761 -45.3453 479.829 0.977306 -0.0301847 0.209669
17.7521 -45.5267 479.971 0.968631 -0.0826773 0.234346
17.6682 -45.6566 480.104 0.967463 -0.0517167 0.247672
17.6405 -45.8251 480.243 0.958576 -0.00714582 0.284746
17.5906 -45.9783 480.38 0.960591 -0.035976 0.275628
17.5709 -46.152 480.52 0.982298 -0.0183135 0.186427
17.5319 -46.3125 480.658 0.952639 -0.0829959 0.292557
17.438 -46.4355 480.791 0.936128 -0.148526 0.318755
17.3809 -46.5836 480.927 0.948845 -0.123878 0.290425
17.3281 -46.7346 481.063 0.915319 -0.141827 0.376929
17.2336 -46.8572 481.196 0.912627 -0.141348 0.383578
17.155 -46.9905 481.329 0.908994 -0.0979823 0.405129
17.0787 -47.1254 481.464 0.941676 -0.0872674 0.325008
17.052 -47.294 481.602 0.983428 -0.0582234 0.171693
17.0145 -47.4552 481.74 0.951688 -0.0827907 0.295694
16.9536 -47.6004 481.876 0.896355 -0.157785 0.414309
16.8566 -47.7212 482.008 0.864099 -0.205931 0.459265
16.741 -47.8294 482.138 0.832104 -0.228374 0.505419
16.6192 -47.9334 482.267 0.805139 -0.205988 0.556165
16.5025 -48.0409 482.398 0.82101 -0.155257 0.549397
16.4054 -48.1616 482.529 0.85768 -0.127338 0.498166
16.3097 -48.2833 482.662 0.879255 -0.129876 0.458304
16.2374 -48.4208 482.796 0.896467 -0.162425 0.412267
16.1623 -48.5563 482.93 0.887788 -0.22639 0.400724
16.0652 -48.677 483.062 0.847018 -0.301749 0.437617
15.9288 -48.7715 483.19 0.834926 -0.304685 0.458329
15.8204 -48.8842 483.321 0.846886 -0.246157 0.471371
15.7132 -48.9984 483.452 0.785294 -0.267022 0.55858
15.5613 -49.0823 483.579 0.699816 -0.307071 0.644953
15.3861 -49.1506 483.703 0.715759 -0.259748 0.648244
15.2746 -49.2618 483.834 0.78803 -0.219599 0.575139
15.1596 -49.3707 483.964 0.800613 -0.218067 0.558091
15.0412 -49.4772 484.094 0.781327 -0.2331 0.578958
14.9267 -49.5864 484.225 0.802244 -0.269258 0.532827
14.8084 -49.6931 484.355 0.812964 -0.298671 0.499885
14.6729 -49.7883 484.484 0.758085 -0.350114 0.550207
14.5184 -49.8709 484.61 0.639677 -0.380265 0.667991
14.3072 -49.9156 484.732 0.573736 -0.367349 0.732039
14.1268 -49.981 484.857 0.631079 -0.331711 0.701218
13.9715 -50.0632 484.984 0.703267 -0.303811 0.64274
13.8097 -50.1412 485.11 0.719805 -0.316501 0.617825
13.6646 -50.2303 485.238 0.70997 -0.291021 0.641288
13.52 -50.3198 485.366 0.696974 -0.282499 0.659107
13.3707 -50.4063 485.493 0.684936 -0.351032 0.638467
13.2077 -50.4858 485.619 0.640654 -0.402476 0.653893
13.0485 -50.5636 485.747 0.609221 -0.429608 0.666548
12.8243 -50.6005 485.868 0.545217 -0.421638 0.724541
12.6206 -50.6511 485.991 0.476357 -0.421631 0.771564
12.3828 -50.6793 486.111 0.462348 -0.442031 0.768663
12.1549 -50.7146 486.232 0.530099 -0.387736 0.754093
11.9846 -50.7871 486.359 0.592847 -0.340132 0.729961
11.7969 -50.8482 486.484 0.572362 -0.408173 0.711194
11.591 -50.8969 486.607 0.520736 -0.457982 0.720477
11.3491 -50.9244 486.727 0.505026 -0.442729 0.740904
11.1554 -50.9765 486.854 0.507016 -0.457387 0.73057
10.9315 -51.0206 486.973 0.399057 -0.497965 0.769925
10.6606 -51.0279 487.091 0.24116 -0.554533 0.796451
10.2851 -50.9665 487.201 0.253036 -0.556232 0.791567
10.0097 -50.972 487.319 0.401192 -0.485193 0.776938
9.77642 -51.007 487.439 0.44363 -0.462708 0.767525
9.54278 -51.0368 487.562 0.475316 -0.481112 0.736618
9.33396 -51.0847 487.687 0.415577 -0.523415 0.743863
9.02951 -51.0723 487.802 0.383844 -0.533009 0.754033
8.81332 -51.1107 487.928 0.422643 -0.50498 0.752575
8.54316 -51.1249 488.045 0.311733 -0.505971 0.804249
8.20596 -51.0903 488.159 0.157262 -0.516474 0.841739
7.75582 -50.9821 488.264 0.0812437 -0.508041 0.857493
7.3097 -50.8768 488.37 0.113114 -0.521171 0.845923
6.91592 -50.806 488.48 0.155144 -0.535472 0.83018
6.55301 -50.7556 488.592 0.107714 -0.54858 0.82913
6.11173 -50.6544 488.699 0.0568434 -0.565383 0.822868
5.71171 -50.5804 488.809 0.0705017 -0.60813 0.7907
5.2505 -50.4668 488.915 0.073879 -0.575602 0.814386
4.8244 -50.3764 489.024 -0.0250393 -0.55022 0.834644
17.4769 -40.6464 476.653 0.974314 0.203651 -0.0961158
17.5428 -40.8822 476.805 0.966627 0.177479 -0.184755
17.6361 -41.1369 476.959 0.96989 0.155315 -0.18759
17.6463 -41.3336 477.104 0.991255 0.121436 -0.0516423
17.6739 -41.5423 477.251 0.983952 0.160487 -0.0779866
17.7498 -41.7844 477.403 0.981035 0.186684 -0.0521499
17.7653 -41.9845 477.548 0.986756 0.159331 0.0304245
17.8037 -42.2008 477.695 0.99188 0.123825 0.0290009
17.8236 -42.4031 477.841 0.995622 0.0883364 0.030556
17.8389 -42.6027 477.986 0.992847 0.119292 -0.00499645
17.8564 -42.8036 478.131 0.987308 0.153059 0.0423777
17.8936 -43.0181 478.278 0.991369 0.118299 0.0565124
17.9014 -43.2133 478.421 0.995309 0.0777426 0.0575919
17.9103 -43.4068 478.566 0.994525 0.025701 0.101284
17.894 -43.584 478.707 0.998897 0.000311201 0.0469548
17.8773 -43.7621 478.847 0.998083 0.0533377 0.0313769
17.9041 -43.9696 478.992 0.994356 0.044951 0.096105
17.8894 -44.1456 479.135 0.994462 0.00591868 0.104927
17.8658 -44.3149 479.278 0.995797 0.0112381 0.0908972
17.8727 -44.5092 479.42 0.994885 0.0103592 0.100479
17.8394 -44.6748 479.558 0.987564 -0.0240934 0.155362
17.8102 -44.843 479.697 0.985263 -0.0565068 0.161442
17.7914 -45.0169 479.838 0.987121 -0.0464763 0.153076
17.7526 -45.1788 479.976 0.977663 0.00223341 0.210168
17.7094 -45.3368 480.114 0.943595 -0.0378003 0.328938
17.6307 -45.4704 480.248 0.945703 -0.0753437 0.31618
17.5916 -45.6311 480.386 0.980185 -0.0497359 0.191736
17.5668 -45.8015 480.525 0.979042 -0.0414009 0.199404
17.5207 -45.9573 480.663 0.974626 -0.013121 0.223454
17.4896 -46.1233 480.801 0.959772 -0.0526746 0.275795
17.4622 -46.2917 480.941 0.933262 -0.131878 0.334111
17.3679 -46.4145 481.073 0.933545 -0.161106 0.320218
17.2912 -46.5492 481.207 0.916378 -0.161425 0.366325
17.2061 -46.6783 481.34 0.889879 -0.1775 0.420249
17.1119 -46.801 481.473 0.939511 -0.114992 0.32264
17.105 -46.9832 481.614 0.971277 -0.0644304 0.229062
17.0434 -47.1282 481.749 0.969594 -0.10288 0.222045
16.9783 -47.2707 481.884 0.951378 -0.136922 0.275921
16.9008 -47.4045 482.018 0.901686 -0.168179 0.398345
16.8035 -47.5254 482.15 0.84902 -0.18359 0.49544
16.7048 -47.645 482.282 0.793462 -0.239461 0.559532
16.5508 -47.7272 482.408 0.783528 -0.236667 0.57452
16.4414 -47.84 482.539 0.837206 -0.171344 0.519353
16.3445 -47.9607 482.671 0.880737 -0.131871 0.454877
16.2836 -48.1059 482.807 0.914074 -0.123245 0.386366
16.2126 -48.2443 482.941 0.92191 -0.13023 0.364858
16.1409 -48.3821 483.075 0.898932 -0.184645 0.397276
16.0438 -48.503 483.208 0.83911 -0.296885 0.455801
15.9322 -48.614 483.338 0.802444 -0.372378 0.46628
15.7961 -48.7085 483.466 0.822217 -0.353655 0.445968
15.6806 -48.8169 483.597 0.763115 -0.340137 0.549511
15.5152 -48.8918 483.722 0.672135 -0.373791 0.639152
15.3576 -48.9724 483.849 0.744306 -0.323154 0.584448
15.2408 -49.0793 483.979 0.80705 -0.291137 0.513721
15.102 -49.1725 484.107 0.808353 -0.302051 0.505302
14.992 -49.2848 484.238 0.830651 -0.256338 0.494278
14.887 -49.4005 484.369 0.83048 -0.24189 0.501788
14.7791 -49.5142 484.5 0.811019 -0.269613 0.519189
14.6661 -49.6244 484.631 0.706844 -0.36976 0.603034
14.4599 -49.6724 484.753 0.58573 -0.434866 0.683968
14.2765 -49.7357 484.878 0.573075 -0.434928 0.694566
14.0798 -49.7903 485.001 0.655181 -0.393279 0.645034
13.94 -49.8828 485.129 0.728467 -0.335221 0.597464
13.8143 -49.9849 485.259 0.692755 -0.393571 0.604311
13.6195 -50.0409 485.382 0.697535 -0.401368 0.59359
13.4819 -50.1356 485.511 0.755424 -0.352427 0.552385
13.362 -50.2405 485.641 0.703504 -0.35699 0.614525
13.1799 -50.3059 485.766 0.646665 -0.400186 0.649365
13.0001 -50.3704 485.892 0.565025 -0.451697 0.690447
12.7806 -50.4123 486.013 0.506483 -0.456681 0.731381
12.5676 -50.4567 486.135 0.483873 -0.463984 0.742015
12.3309 -50.4856 486.256 0.446785 -0.446185 0.775436
12.084 -50.5105 486.374 0.520995 -0.406798 0.750386
11.8819 -50.5598 486.499 0.64341 -0.313476 0.698396
11.7545 -50.6614 486.629 0.592186 -0.32691 0.736509
11.5212 -50.6959 486.748 0.504244 -0.400901 0.764864
11.3285 -50.7515 486.874 0.520692 -0.435749 0.734168
11.1107 -50.7883 486.999 0.495907 -0.472791 0.728385
10.8696 -50.8204 487.117 0.398674 -0.491525 0.774249
10.5863 -50.8195 487.235 0.265104 -0.482717 0.834688
10.2456 -50.781 487.347 0.261374 -0.483092 0.835646
9.95718 -50.7772 487.464 0.394369 -0.507851 0.765872
9.73116 -50.8146 487.587 0.471132 -0.481113 0.7393
9.51089 -50.8558 487.71 0.492799 -0.460402 0.738363
9.28741 -50.8951 487.832 0.420544 -0.481361 0.769048
9.03274 -50.9191 487.95 0.373538 -0.52853 0.762316
8.7594 -50.9208 488.072 0.370795 -0.54697 0.750557
8.47158 -50.9184 488.19 0.258182 -0.543666 0.798605
8.10593 -50.8651 488.301 0.130933 -0.512467 0.848666
7.64816 -50.7518 488.406 0.0962039 -0.511376 0.853955
7.27132 -50.6917 488.517 0.125503 -0.541716 0.831139
6.88683 -50.6269 488.628 0.135264 -0.589292 0.796517
6.5018 -50.5621 488.739 0.0817981 -0.622084 0.778666
6.04325 -50.4495 488.845 0.0751989 -0.597146 0.7986
5.64 -50.3733 488.955 0.0511447 -0.602817 0.796239
5.12355 -50.2237 489.056 0.0373968 -0.572297 0.819193
17.4445 -40.4611 476.797 0.96017 0.228944 -0.160183
17.5463 -40.7221 476.953 0.964925 0.232935 -0.121078
17.5979 -40.9478 477.102 0.978564 0.204482 -0.0244808
17.646 -41.171 477.252 0.990912 0.133827 -0.0135602
17.6819 -41.3856 477.399 0.989479 0.113745 -0.0894036
17.6953 -41.5844 477.544 0.986573 0.151546 -0.0608821
17.7617 -41.8199 477.695 0.988155 0.150846 -0.0281835
17.7893 -42.0275 477.842 0.992372 0.122383 -0.0148573
17.815 -42.2352 477.988 0.995842 0.0860809 0.0298227
17.8051 -42.4174 478.13 0.996825 0.0748094 0.0272708
17.8254 -42.6175 478.278 0.99233 0.117231 -0.0392119
17.8733 -42.8424 478.424 0.99311 0.117031 0.00600163
17.8739 -43.034 478.564 0.994334 0.0905006 0.0557689
17.895 -43.2343 478.713 0.996958 0.05553 0.0546887
17.8915 -43.4207 478.855 0.99638 -0.00770537 0.0846643
17.8746 -43.5986 478.995 0.99943 0.0104706 0.0321018
17.8709 -43.7819 479.139 0.997331 0.0440347 0.0582393
17.8621 -43.9635 479.282 0.991519 0.0293361 0.126606
17.8578 -44.1507 479.422 0.992717 0.0258289 0.117667
17.8309 -44.3204 479.562 0.989297 0.0321672 0.142328
17.8266 -44.5054 479.704 0.981796 0.0294054 0.187648
17.807 -44.6798 479.844 0.968022 0.0188135 0.250158
17.7439 -44.8243 479.98 0.953666 -0.018423 0.300303
17.6796 -44.9679 480.116 0.963464 -0.012415 0.267551
17.6645 -45.1452 480.256 0.954592 -0.0121884 0.297668
17.6219 -45.3037 480.394 0.964571 -0.0379599 0.261077
17.6083 -45.4819 480.535 0.977407 -0.0545615 0.204201
17.5343 -45.6187 480.669 0.963211 -0.0337896 0.266615
17.5047 -45.7859 480.808 0.971198 -0.00489796 0.238225
17.4723 -45.951 480.947 0.971553 -0.0665472 0.227282
17.3913 -46.083 481.081 0.945644 -0.116723 0.303535
17.3481 -46.2406 481.218 0.915813 -0.15227 0.371618
17.255 -46.3643 481.351 0.906825 -0.187573 0.377473
17.1793 -46.4998 481.485 0.902564 -0.184717 0.38892
17.0982 -46.6315 481.619 0.951789 -0.120459 0.282111
17.045 -46.7823 481.755 0.97202 -0.013529 0.234506
17.0243 -46.9551 481.895 0.951637 -0.0380901 0.304853
16.9721 -47.1064 482.031 0.928978 -0.17423 0.326564
16.8752 -47.2274 482.163 0.879327 -0.256594 0.401178
16.7637 -47.3384 482.294 0.85549 -0.238257 0.459751
16.6585 -47.4537 482.425 0.786604 -0.263161 0.558571
16.5137 -47.5422 482.553 0.784189 -0.295922 0.545415
16.4115 -47.6596 482.684 0.865009 -0.275376 0.419438
16.3144 -47.7805 482.816 0.92075 -0.211669 0.327742
16.2561 -47.9275 482.952 0.935917 -0.185177 0.299615
16.1643 -48.052 483.084 0.93839 -0.166966 0.302565
16.1254 -48.212 483.222 0.919947 -0.167138 0.354629
16.0285 -48.333 483.354 0.862406 -0.235028 0.448351
15.9312 -48.4535 483.486 0.80101 -0.321222 0.505173
15.7837 -48.5405 483.613 0.765648 -0.33104 0.551539
15.6464 -48.6343 483.741 0.730966 -0.340085 0.591634
15.4861 -48.7127 483.868 0.676038 -0.401181 0.618083
15.3238 -48.7897 483.994 0.765357 -0.327286 0.554177
15.2241 -48.9088 484.125 0.813491 -0.261157 0.519643
15.1089 -49.0185 484.256 0.790127 -0.303074 0.532771
14.9686 -49.1088 484.383 0.823655 -0.295965 0.483732
14.8618 -49.2245 484.515 0.838386 -0.258325 0.479976
14.7427 -49.3298 484.645 0.816478 -0.248916 0.520965
14.6183 -49.433 484.775 0.693032 -0.348984 0.630807
14.4363 -49.4972 484.899 0.580294 -0.413136 0.701839
14.244 -49.5546 485.023 0.583147 -0.397998 0.708193
14.0548 -49.6141 485.147 0.651068 -0.410844 0.638214
13.9034 -49.699 485.274 0.757504 -0.369516 0.538188
13.7709 -49.7965 485.403 0.701784 -0.343201 0.624269
13.6084 -49.8741 485.53 0.692623 -0.337204 0.637626
13.4766 -49.9722 485.659 0.723798 -0.362957 0.586838
13.2759 -50.0245 485.782 0.705404 -0.338372 0.622824
13.1676 -50.1384 485.914 0.648782 -0.380305 0.659128
12.9561 -50.1835 486.036 0.537805 -0.475135 0.696429
12.7518 -50.2325 486.16 0.50148 -0.4673 0.728113
12.5227 -50.267 486.281 0.449414 -0.472265 0.758283
12.2616 -50.2802 486.399 0.442413 -0.479389 0.75793
12.0566 -50.3316 486.521 0.503221 -0.465016 0.728374
11.8453 -50.3761 486.645 0.622427 -0.410538 0.666366
11.6713 -50.444 486.772 0.611103 -0.377427 0.695775
11.4759 -50.5036 486.895 0.544501 -0.398563 0.738015
11.2798 -50.5599 487.02 0.543491 -0.435829 0.717405
11.0703 -50.6071 487.143 0.472303 -0.464164 0.749321
10.8265 -50.6324 487.263 0.33427 -0.501103 0.798223
10.4729 -50.5852 487.375 0.258384 -0.502233 0.825227
10.1773 -50.5764 487.491 0.324676 -0.477274 0.816575
9.94785 -50.6114 487.613 0.407583 -0.469851 0.783017
9.6789 -50.6205 487.732 0.464981 -0.463142 0.754514
9.46719 -50.6674 487.856 0.475723 -0.492014 0.729116
9.21721 -50.6893 487.977 0.4426 -0.506307 0.740107
8.9941 -50.729 488.1 0.398602 -0.484885 0.778462
8.72021 -50.7354 488.219 0.342034 -0.506346 0.791597
8.44012 -50.738 488.337 0.196054 -0.536702 0.820679
7.96722 -50.6143 488.441 0.110093 -0.543162 0.832379
7.62004 -50.5734 488.554 0.11411 -0.538535 0.834841
7.16325 -50.461 488.66 0.161143 -0.545436 0.822516
6.88579 -50.4661 488.779 0.170178 -0.538284 0.825403
6.45304 -50.37 488.886 0.0991463 -0.52953 0.842478
6.02267 -50.2757 488.994 0.0866147 -0.569507 0.81741
5.61331 -50.1955 489.104 0.039451 -0.577141 0.815691
5.07749 -50.0331 489.204 -0.000822324 -0.578677 0.815556
17.4306 -40.2887 476.944 0.965667 0.206952 -0.157028
17.4878 -40.5186 477.094 0.971527 0.216097 -0.097142
17.5489 -40.7512 477.245 0.970655 0.23584 -0.0469809
17.6452 -41.0071 477.4 0.982848 0.180152 -0.0394377
17.6515 -41.2021 477.544 0.99294 0.118213 -0.00974266
17.7008 -41.4259 477.693 0.989524 0.131256 -0.0601247
17.7221 -41.6302 477.838 0.987632 0.146695 -0.055345
17.769 -41.8521 477.987 0.992106 0.124899 -0.0112189
17.7803 -42.0499 478.131 0.996739 0.0804857 0.00574532
17.8143 -42.2619 478.279 0.998477 0.0502683 -0.0227466
17.8229 -42.4568 478.423 0.995497 0.0634622 -0.0704199
17.8406 -42.6609 478.565 0.994596 0.103733 0.00422941
17.8569 -42.8568 478.714 0.992235 0.115206 0.0468758
17.8839 -43.0655 478.858 0.993246 0.0954826 0.0659183
17.8759 -43.2486 479 0.994144 0.0325929 0.103035
17.8695 -43.4327 479.143 0.996339 -0.00110773 0.085484
17.8468 -43.6037 479.285 0.997809 0.0090641 0.0655431
17.851 -43.7967 479.426 0.996224 0.00851438 0.0864028
17.8174 -43.9617 479.565 0.993305 -0.00274469 0.115485
17.8152 -44.1484 479.708 0.989964 -0.00464977 0.14124
17.7651 -44.302 479.845 0.978119 0.00210517 0.208034
17.7219 -44.4603 479.983 0.968651 0.0128394 0.248093
17.7143 -44.643 480.124 0.96436 -0.0283232 0.263073
17.6801 -44.8074 480.263 0.969989 -0.0767116 0.230731
17.6131 -44.9492 480.399 0.985167 -0.0784653 0.152605
17.5996 -45.1276 480.539 0.986244 -0.0644908 0.152195
17.5403 -45.2746 480.675 0.957128 -0.0646346 0.282362
17.4844 -45.4239 480.812 0.961133 -0.0326292 0.274152
17.4656 -45.5985 480.952 0.986028 0.00704785 0.166432
17.4569 -45.78 481.093 0.969607 -0.0805975 0.231011
17.3962 -45.9258 481.229 0.943133 -0.154525 0.294315
17.3189 -46.0603 481.363 0.928338 -0.153618 0.338513
17.2448 -46.1969 481.497 0.90024 -0.182503 0.395297
17.1485 -46.3184 481.63 0.912644 -0.166039 0.373512
17.0855 -46.4625 481.765 0.926371 -0.121623 0.356434
17.0022 -46.593 481.899 0.967508 -0.0389284 0.249826
16.9918 -46.7728 482.039 0.978054 -0.00341923 0.208323
16.9547 -46.9345 482.177 0.916955 -0.0907098 0.388543
16.8578 -47.0555 482.309 0.837143 -0.203533 0.507707
16.7343 -47.1584 482.439 0.822949 -0.266876 0.501529
16.6155 -47.2647 482.569 0.814124 -0.284424 0.506266
16.512 -47.381 482.7 0.833106 -0.278551 0.477854
16.4146 -47.502 482.832 0.872559 -0.258654 0.414413
16.3181 -47.623 482.964 0.92127 -0.220432 0.320423
16.2562 -47.7677 483.1 0.930772 -0.205151 0.302617
16.1732 -47.8981 483.233 0.925058 -0.196219 0.325215
16.0837 -48.0241 483.366 0.912209 -0.165355 0.374875
15.9929 -48.149 483.498 0.86643 -0.171487 0.468926
15.8954 -48.2698 483.63 0.777107 -0.264634 0.571028
15.7226 -48.3396 483.755 0.745127 -0.288737 0.60118
15.6232 -48.459 483.887 0.744502 -0.281804 0.605231
15.4633 -48.5377 484.014 0.671086 -0.354289 0.651248
15.2948 -48.6106 484.139 0.747347 -0.318373 0.58319
15.1675 -48.7115 484.268 0.825485 -0.238464 0.511576
15.058 -48.8236 484.399 0.806764 -0.264062 0.528586
14.9445 -48.9338 484.53 0.807445 -0.308104 0.503095
14.8209 -49.0376 484.66 0.817551 -0.300681 0.491123
14.6997 -49.1415 484.789 0.814954 -0.291708 0.500756
14.5919 -49.2558 484.921 0.683821 -0.373079 0.627058
14.3681 -49.292 485.042 0.567928 -0.414479 0.711102
14.186 -49.357 485.166 0.63423 -0.352676 0.68802
14.0514 -49.4524 485.295 0.682472 -0.326771 0.653798
13.8887 -49.5297 485.422 0.695928 -0.389878 0.603058
13.7115 -49.5974 485.547 0.691016 -0.404382 0.599143
13.554 -49.6784 485.674 0.737117 -0.345144 0.580977
13.4323 -49.7833 485.804 0.689139 -0.348376 0.635391
13.2549 -49.851 485.929 0.705543 -0.323218 0.630666
13.1309 -49.9545 486.059 0.676137 -0.345029 0.650994
12.927 -50.0048 486.182 0.518539 -0.424099 0.742467
12.6987 -50.039 486.304 0.482868 -0.463292 0.743101
12.4678 -50.0716 486.425 0.451088 -0.484352 0.749615
12.254 -50.1148 486.547 0.456349 -0.475325 0.752205
12.0036 -50.1367 486.666 0.515909 -0.453594 0.726698
11.8199 -50.1999 486.792 0.586108 -0.404177 0.702224
11.6272 -50.2582 486.916 0.593302 -0.359778 0.720106
11.4348 -50.3169 487.041 0.579489 -0.394866 0.712933
11.2464 -50.3783 487.166 0.533356 -0.452926 0.714415
11.0121 -50.408 487.288 0.450057 -0.462212 0.764074
10.7549 -50.4162 487.411 0.295006 -0.5645 0.770916
10.4398 -50.4037 487.522 0.234695 -0.595236 0.768513
10.1315 -50.3866 487.637 0.332233 -0.552583 0.764378
9.85456 -50.3929 487.754 0.420407 -0.500052 0.757104
9.64534 -50.437 487.88 0.493631 -0.481909 0.723942
9.45409 -50.4975 488.006 0.466982 -0.540681 0.699708
9.20041 -50.5185 488.125 0.393982 -0.562957 0.726538
8.91902 -50.5198 488.244 0.394227 -0.500097 0.77103
8.66837 -50.5415 488.365 0.335937 -0.433263 0.836319
8.31786 -50.4979 488.478 0.204091 -0.454522 0.867039
7.97158 -50.4572 488.592 0.115382 -0.521771 0.845247
7.48592 -50.3255 488.694 0.136402 -0.516925 0.845094
7.18225 -50.3133 488.812 0.167224 -0.517184 0.839379
6.71505 -50.1942 488.917 0.142629 -0.545546 0.825855
6.3423 -50.1373 489.029 0.123761 -0.533244 0.83686
5.956 -50.0718 489.14 0.0991622 -0.528304 0.843245
5.47024 -49.9416 489.244 0.0618601 -0.50728 0.859558
5.01482 -49.8316 489.351 0.00969129 -0.546512 0.837395
17.4241 -40.1213 477.091 0.973106 0.217074 -0.0770894
17.4639 -40.3392 477.239 0.979285 0.192616 -0.0624531
17.5234 -40.5708 477.39 0.966461 0.208713 -0.149641
17.6105 -40.8213 477.543 0.979746 0.185458 -0.0755214
17.6394 -41.0322 477.689 0.988536 0.150939 0.00380813
17.6821 -41.2506 477.838 0.988513 0.150881 -0.00871116
17.7037 -41.4542 477.985 0.988186 0.149191 -0.0350879
17.765 -41.6872 478.134 0.989311 0.144804 -0.0171974
17.7804 -41.8872 478.279 0.992132 0.125017 0.0066321
17.8198 -42.1037 478.427 0.996763 0.0783493 -0.0180188
17.8111 -42.2837 478.572 0.999656 0.0262073 0.00124966
17.8121 -42.4765 478.712 0.997872 0.0648499 0.00676122
17.8233 -42.6732 478.857 0.994186 0.104435 0.0262356
17.8376 -42.8718 479.001 0.992165 0.113663 0.0518619
17.8656 -43.0786 479.148 0.989593 0.0861692 0.115242
17.8509 -43.2584 479.288 0.993394 0.0261398 0.111737
17.85 -43.4463 479.431 0.996553 0.00621817 0.0827273
17.8269 -43.6187 479.571 0.993425 0.0168096 0.113244
17.8274 -43.8074 479.714 0.991336 -0.00918154 0.131027
17.7816 -43.9641 479.852 0.986184 -0.0602249 0.154316
17.7517 -44.1316 479.991 0.981398 -0.0757425 0.176412
17.7251 -44.3014 480.131 0.988744 -0.0468582 0.142089
17.6903 -44.4655 480.269 0.985975 -0.0360052 0.162963
17.6503 -44.626 480.408 0.980232 -0.0373314 0.194296
17.6563 -44.818 480.55 0.979942 -0.059301 0.190256
17.5838 -44.956 480.685 0.964503 -0.105283 0.242177
17.525 -45.1035 480.821 0.961051 -0.133467 0.242006
17.4784 -45.2591 480.959 0.986512 -0.121208 0.110008
17.4577 -45.4325 481.099 0.997173 -0.05163 0.0545949
17.4387 -45.6069 481.239 0.969486 -0.0542589 0.239067
17.3559 -45.7377 481.372 0.911163 -0.0811008 0.403985
17.2887 -45.8792 481.508 0.9075 -0.101852 0.407517
17.2052 -46.0094 481.641 0.894235 -0.145608 0.423252
17.1219 -46.1399 481.775 0.896209 -0.150136 0.417455
17.0288 -46.2636 481.907 0.926653 -0.105262 0.360881
16.9941 -46.4271 482.045 0.969613 -0.0489464 0.239699
16.9545 -46.5871 482.183 0.97013 -0.0520946 0.236926
16.8734 -46.719 482.317 0.920141 -0.0946948 0.379966
16.8085 -46.8618 482.452 0.863706 -0.158496 0.478426
16.7114 -46.9825 482.584 0.824744 -0.231824 0.515806
16.6001 -47.094 482.715 0.823548 -0.27145 0.49808
16.4747 -47.1957 482.844 0.848082 -0.243888 0.4704
16.3773 -47.3167 482.977 0.883481 -0.187492 0.429311
16.3045 -47.4538 483.111 0.911271 -0.150056 0.383495
16.2227 -47.585 483.244 0.909696 -0.141673 0.390362
16.1363 -47.7134 483.378 0.88531 -0.152267 0.439364
16.0438 -47.8372 483.51 0.873124 -0.159734 0.460585
15.9466 -47.9581 483.642 0.863045 -0.168666 0.476136
15.8458 -48.0765 483.774 0.77115 -0.249053 0.585919
15.697 -48.1626 483.901 0.737869 -0.281526 0.613427
15.5532 -48.2521 484.029 0.756091 -0.268076 0.597045
15.4152 -48.3455 484.157 0.689007 -0.307654 0.656215
15.2548 -48.4239 484.284 0.741276 -0.303637 0.598594
15.1472 -48.5378 484.415 0.835654 -0.281357 0.471721
15.0463 -48.6564 484.547 0.840773 -0.254313 0.477938
14.9353 -48.7681 484.677 0.799584 -0.227491 0.5558
14.8014 -48.8646 484.806 0.795947 -0.210531 0.567578
14.6981 -48.9811 484.938 0.784723 -0.24532 0.569234
14.5275 -49.0531 485.063 0.651972 -0.341752 0.676859
14.3539 -49.1223 485.189 0.549774 -0.418875 0.722697
14.1294 -49.1588 485.31 0.642229 -0.393056 0.658064
13.9819 -49.2463 485.438 0.74579 -0.298072 0.595778
13.8679 -49.3562 485.568 0.704823 -0.343802 0.620503
13.7097 -49.4367 485.695 0.669554 -0.380673 0.637798
13.5466 -49.514 485.822 0.707848 -0.371586 0.600729
13.379 -49.5883 485.948 0.678103 -0.352608 0.64486
13.2003 -49.6552 486.073 0.703086 -0.295414 0.646839
13.0693 -49.754 486.203 0.655326 -0.318249 0.68503
12.8562 -49.7982 486.325 0.539179 -0.406192 0.737763
12.6797 -49.8655 486.452 0.488075 -0.46611 0.737919
12.4302 -49.8871 486.57 0.448767 -0.457867 0.767441
12.1803 -49.9072 486.69 0.467065 -0.44084 0.766492
11.974 -49.9564 486.813 0.507786 -0.445126 0.737574
11.7514 -49.9982 486.934 0.54869 -0.422997 0.721119
11.5407 -50.0414 487.058 0.617126 -0.337071 0.711012
11.4134 -50.1431 487.189 0.609641 -0.332627 0.719512
11.1879 -50.18 487.311 0.505259 -0.419179 0.754322
10.9641 -50.2221 487.431 0.486536 -0.495089 0.71984
10.7934 -50.2914 487.56 0.298868 -0.600269 0.74186
10.3899 -50.2111 487.667 0.225751 -0.591 0.774439
10.1221 -50.2206 487.786 0.313394 -0.5664 0.762217
9.83727 -50.2208 487.903 0.421298 -0.565415 0.709094
9.64389 -50.2795 488.029 0.531397 -0.529866 0.660953
9.4175 -50.3152 488.152 0.46766 -0.503994 0.726143
9.17415 -50.3414 488.274 0.357408 -0.479519 0.801449
8.85444 -50.3175 488.389 0.324703 -0.445579 0.834283
8.53249 -50.2882 488.506 0.305836 -0.403144 0.862519
8.22452 -50.2766 488.621 0.232664 -0.44841 0.863016
7.84946 -50.2171 488.733 0.117097 -0.521678 0.845068
7.40902 -50.1149 488.839 0.136826 -0.538653 0.831343
7.06846 -50.0785 488.954 0.177526 -0.534207 0.826503
6.7168 -50.0351 489.068 0.13286 -0.53491 0.834398
6.31761 -49.9608 489.178 0.104451 -0.560567 0.821496
5.82272 -49.8242 489.281 0.0741913 -0.530586 0.844378
5.38962 -49.7284 489.39 0.0750533 -0.51274 0.855257
4.93806 -49.6208 489.497 0.0089257 -0.562691 0.826619
17.3641 -39.9165 477.232 0.972279 0.206529 -0.109638
17.4487 -40.1659 477.385 0.973195 0.202474 -0.109065
17.5291 -40.4121 477.538 0.971928 0.200175 -0.123637
17.5749 -40.634 477.687 0.983897 0.1538 -0.0910592
17.6085 -40.8472 477.834 0.989898 0.139491 -0.0253945
17.6386 -41.0579 477.981 0.988084 0.148633 -0.0399862
17.6979 -41.2888 478.131 0.990653 0.114286 -0.0744716
17.6989 -41.4801 478.274 0.991382 0.11746 -0.0580038
17.7566 -41.7086 478.424 0.988285 0.148042 -0.0371095
17.7952 -41.9246 478.572 0.992865 0.119239 0.000586536
17.824 -42.1326 478.719 0.997114 0.0362823 0.0666945
17.7911 -42.3001 478.858 0.999483 0.0230423 0.0224159
17.8163 -42.5056 479.004 0.997348 0.0706004 0.0176783
17.8113 -42.6919 479.146 0.994792 0.0901187 0.0476272
17.8177 -42.8872 479.287 0.992774 0.103612 0.0605317
17.8442 -43.0922 479.435 0.988567 0.0799596 0.127838
17.8196 -43.2638 479.575 0.985299 0.0379533 0.166571
17.8003 -43.439 479.716 0.988961 0.0481953 0.140118
17.7978 -43.6285 479.856 0.985014 0.0484291 0.165534
17.7849 -43.8051 479.999 0.977603 -0.0145595 0.209953
17.7428 -43.9644 480.138 0.97773 -0.0504708 0.203708
17.6924 -44.1178 480.275 0.97884 -0.0235209 0.20327
17.6728 -44.2924 480.415 0.979405 -0.0308684 0.199529
17.6333 -44.4532 480.553 0.984799 -0.0314914 0.170819
17.5887 -44.6106 480.691 0.973416 -0.0253017 0.227642
17.5532 -44.7741 480.83 0.962325 -0.0522203 0.266839
17.5338 -44.9486 480.97 0.976506 -0.0580465 0.207526
17.5029 -45.1149 481.109 0.978957 -0.0672601 0.192662
17.448 -45.2651 481.245 0.971025 -0.0618945 0.230824
17.3714 -45.4003 481.38 0.938911 -0.103375 0.328266
17.2966 -45.5366 481.514 0.931197 -0.127721 0.341408
17.2463 -45.6897 481.651 0.925069 -0.116616 0.361453
17.1663 -45.8223 481.785 0.895128 -0.129388 0.426619
17.0826 -45.9527 481.919 0.892756 -0.124751 0.432926
17.0105 -46.0907 482.053 0.94287 -0.0898391 0.320819
16.9699 -46.2502 482.191 0.972814 -0.056856 0.224499
16.9206 -46.4038 482.328 0.954367 -0.105169 0.279505
16.8656 -46.5534 482.464 0.928509 -0.19527 0.315818
16.769 -46.6747 482.596 0.896937 -0.243046 0.369367
16.6716 -46.7955 482.728 0.853441 -0.22705 0.469135
16.5642 -46.9092 482.859 0.818993 -0.242229 0.520169
16.4482 -47.0178 482.99 0.841133 -0.262848 0.47266
16.3511 -47.1385 483.122 0.892053 -0.23144 0.388172
16.2571 -47.2617 483.254 0.909941 -0.177523 0.374823
16.1827 -47.398 483.388 0.896221 -0.15271 0.416494
16.0889 -47.5212 483.521 0.885509 -0.182146 0.427431
16.0017 -47.6489 483.654 0.881036 -0.216759 0.420465
15.9046 -47.7697 483.786 0.861736 -0.239325 0.447364
15.7948 -47.8823 483.917 0.778895 -0.292741 0.55464
15.6369 -47.9625 484.044 0.742108 -0.302991 0.59789
15.5252 -48.0731 484.174 0.746046 -0.30638 0.591225
15.3607 -48.149 484.3 0.724808 -0.340039 0.599189
15.2368 -48.2522 484.43 0.797371 -0.308643 0.518593
15.1322 -48.3678 484.562 0.820115 -0.291669 0.492281
14.9788 -48.4512 484.689 0.789956 -0.294584 0.537764
14.8394 -48.5443 484.817 0.786457 -0.251108 0.564296
14.7217 -48.6507 484.947 0.813417 -0.201498 0.545665
14.6182 -48.768 485.079 0.771842 -0.235096 0.590753
14.4782 -48.8604 485.207 0.663419 -0.33421 0.669462
14.3011 -48.9279 485.333 0.577056 -0.422105 0.699167
14.1078 -48.9849 485.456 0.62674 -0.399504 0.669024
13.9655 -49.0757 485.585 0.757274 -0.303558 0.578263
13.8236 -49.1671 485.713 0.715303 -0.353888 0.602582
13.6376 -49.2291 485.838 0.686064 -0.40358 0.605342
13.5088 -49.3291 485.967 0.670836 -0.406628 0.620188
13.3138 -49.3863 486.091 0.644509 -0.372869 0.667515
13.1679 -49.474 486.219 0.692888 -0.328752 0.641739
12.9968 -49.5461 486.345 0.667494 -0.320312 0.672199
12.8548 -49.6377 486.474 0.570814 -0.377727 0.729036
12.6057 -49.6595 486.593 0.468068 -0.423175 0.77578
12.3593 -49.6748 486.716 0.446016 -0.428757 0.785645
12.1499 -49.7282 486.836 0.48788 -0.460178 0.741761
11.9276 -49.7657 486.959 0.506206 -0.461973 0.728242
11.7158 -49.8118 487.082 0.50737 -0.458634 0.729542
11.4987 -49.8538 487.204 0.607074 -0.414055 0.678247
11.3186 -49.9208 487.33 0.630841 -0.3858 0.6732
11.1463 -49.9852 487.46 0.564524 -0.460604 0.68495
10.982 -50.0703 487.584 0.519956 -0.510249 0.685049
10.701 -50.0681 487.703 0.288143 -0.543783 0.788209
10.3643 -50.0344 487.815 0.242419 -0.534124 0.809904
10.0805 -50.0334 487.933 0.355048 -0.516781 0.779024
9.83129 -50.0553 488.054 0.439493 -0.519446 0.732818
9.60698 -50.0938 488.176 0.488095 -0.473217 0.733368
9.35951 -50.1171 488.298 0.409731 -0.442296 0.797806
9.05784 -50.105 488.414 0.324791 -0.433267 0.840708
8.74466 -50.0896 488.529 0.289871 -0.409135 0.865207
8.43501 -50.0664 488.648 0.307366 -0.441926 0.84275
8.16142 -50.0751 488.767 0.232225 -0.539208 0.809522
7.79548 -50.0215 488.879 0.108934 -0.590423 0.799709
7.38097 -49.9363 488.988 0.126922 -0.583853 0.801877
7.02323 -49.8886 489.101 0.158884 -0.557734 0.814671
6.58052 -49.7855 489.208 0.13661 -0.561226 0.81631
6.22086 -49.737 489.322 0.0806136 -0.550108 0.831193
5.72729 -49.6012 489.426 0.0555507 -0.548332 0.834413
5.3024 -49.5107 489.535 0.0747083 -0.57032 0.818018
4.86517 -49.4124 489.643 -0.0160749 -0.576052 0.817255
16.8466 -38.2462 476.456 0.941448 0.264904 -0.208571
16.9246 -38.4921 476.61 0.953727 0.241667 -0.178889
17.0442 -38.767 476.768 0.946742 0.239455 -0.215269
17.1219 -39.0123 476.921 0.95908 0.237577 -0.15402
17.2014 -39.2587 477.074 0.966004 0.230058 -0.117935
17.2838 -39.5069 477.227 0.961341 0.203318 -0.1857
17.3894 -39.7713 477.383 0.969916 0.163609 -0.180267
17.4164 -39.9804 477.53 0.968673 0.160602 -0.189421
17.5011 -40.2298 477.683 0.968125 0.183441 -0.170537
17.5794 -40.4745 477.835 0.987979 0.138947 -0.0677601
17.5853 -40.6685 477.98 0.991135 0.0961888 -0.0916514
17.6533 -40.9057 478.131 0.980599 0.117339 -0.157028
17.6992 -41.1274 478.279 0.992105 0.108253 -0.0633132
17.7231 -41.3336 478.425 0.995331 0.0832235 -0.0488893
17.7381 -41.5335 478.57 0.989838 0.114374 -0.0844903
17.7767 -41.7496 478.718 0.99082 0.134885 -0.00899774
17.7903 -41.9484 478.862 0.991484 0.0960253 0.0879667
17.8045 -42.1474 479.007 0.99444 0.0394017 0.0976569
17.7718 -42.3146 479.146 0.998485 0.0421505 0.0353606
17.7969 -42.5202 479.292 0.994658 0.0802226 0.064967
17.7955 -42.7074 479.435 0.993781 0.0838586 0.0732563
17.786 -42.8869 479.58 0.992843 0.0680132 0.0981647
17.7884 -43.0807 479.72 0.984713 0.0499719 0.166861
17.7711 -43.2574 479.861 0.987836 0.0356403 0.151358
17.7499 -43.4312 480.001 0.989234 0.0512748 0.137067
17.7451 -43.6135 480.146 0.979607 0.0191884 0.200003
17.703 -43.7762 480.281 0.969385 -0.0451275 0.241365
17.6707 -43.9422 480.42 0.985447 -0.0469396 0.163372
17.6489 -44.1148 480.56 0.988639 -0.0562204 0.139402
17.613 -44.2782 480.699 0.972878 -0.0396639 0.227892
17.5771 -44.4416 480.838 0.969455 -0.0166397 0.244706
17.5422 -44.6056 480.976 0.975414 -0.036158 0.217394
17.4845 -44.7538 481.113 0.973334 -0.0160318 0.228834
17.4514 -44.9189 481.251 0.950955 0.000385063 0.30933
17.3916 -45.0656 481.387 0.942608 -0.00981291 0.333758
17.3826 -45.2472 481.528 0.939516 -0.0847404 0.331858
17.2985 -45.377 481.662 0.922249 -0.142981 0.359184
17.213 -45.5063 481.795 0.91468 -0.163275 0.369733
17.1162 -45.6275 481.928 0.901807 -0.185919 0.3901
17.0388 -45.7621 482.062 0.930627 -0.165286 0.326517
16.9846 -45.9125 482.198 0.964742 -0.113749 0.237349
16.9453 -46.073 482.336 0.974005 -0.0624947 0.217737
16.9105 -46.2365 482.474 0.969384 -0.0942615 0.226738
16.861 -46.39 482.611 0.925136 -0.172804 0.338027
16.7639 -46.5109 482.743 0.847372 -0.242422 0.472432
16.6307 -46.6074 482.872 0.836946 -0.231668 0.495834
16.5332 -46.7282 483.004 0.844508 -0.191809 0.500015
16.4372 -46.8499 483.136 0.85284 -0.191987 0.485597
16.3401 -46.9708 483.269 0.86967 -0.20755 0.447881
16.2405 -47.0903 483.401 0.886038 -0.205463 0.415598
16.1434 -47.2115 483.533 0.90584 -0.155293 0.394129
16.0855 -47.3589 483.669 0.896095 -0.141949 0.420553
15.9915 -47.4818 483.801 0.87443 -0.18481 0.448574
15.894 -47.6028 483.933 0.837597 -0.244408 0.488565
15.7609 -47.6995 484.062 0.761897 -0.311456 0.567898
15.6218 -47.7921 484.19 0.750803 -0.346024 0.562638
15.4751 -47.8797 484.318 0.763401 -0.364476 0.53327
15.3567 -47.9864 484.448 0.752788 -0.392946 0.528113
15.2086 -48.0731 484.576 0.804084 -0.35982 0.473264
15.0939 -48.1824 484.706 0.801486 -0.327225 0.500543
14.9734 -48.2878 484.837 0.754244 -0.333512 0.565585
14.835 -48.3811 484.965 0.775072 -0.311098 0.549983
14.7062 -48.4813 485.095 0.818459 -0.279702 0.501888
14.5893 -48.5884 485.225 0.788049 -0.297269 0.539083
14.4423 -48.6765 485.353 0.694072 -0.349349 0.629459
14.2812 -48.7547 485.48 0.584252 -0.417536 0.695927
14.0529 -48.7884 485.6 0.628013 -0.386943 0.675185
13.9102 -48.8791 485.729 0.768614 -0.279572 0.575388
13.8079 -48.9967 485.86 0.7395 -0.3308 0.58627
13.6683 -49.0897 485.989 0.678243 -0.43811 0.589954
13.4784 -49.148 486.114 0.621668 -0.449805 0.641252
13.2799 -49.2028 486.237 0.636166 -0.37369 0.675017
13.1215 -49.2834 486.364 0.669074 -0.360532 0.64989
12.9395 -49.3482 486.49 0.661137 -0.343322 0.667104
12.7679 -49.4179 486.617 0.558586 -0.351155 0.751446
12.5324 -49.4501 486.736 0.46253 -0.425039 0.77808
12.3333 -49.5033 486.86 0.490512 -0.464636 0.737232
12.1038 -49.537 486.982 0.498211 -0.46248 0.733416
11.8911 -49.5793 487.106 0.504085 -0.458733 0.731753
11.6714 -49.6225 487.227 0.5194 -0.441344 0.731737
11.4708 -49.6788 487.35 0.594616 -0.430451 0.679076
11.318 -49.7606 487.48 0.662397 -0.44692 0.601242
11.1593 -49.8404 487.608 0.589072 -0.474921 0.653793
10.9012 -49.8597 487.726 0.466745 -0.464945 0.752314
10.682 -49.8972 487.851 0.278584 -0.501413 0.819131
10.2844 -49.8217 487.958 0.266926 -0.511846 0.816557
10.0478 -49.8519 488.08 0.397327 -0.459644 0.794266
9.78434 -49.8638 488.2 0.431966 -0.434703 0.790214
9.53771 -49.8862 488.322 0.430942 -0.424138 0.79649
9.26765 -49.8966 488.44 0.361694 -0.453735 0.814434
8.98734 -49.8985 488.559 0.277443 -0.484004 0.829919
8.62924 -49.8513 488.671 0.311885 -0.466993 0.827433
8.41924 -49.8967 488.797 0.355113 -0.511224 0.782652
8.11861 -49.8869 488.914 0.234037 -0.585526 0.776135
7.76996 -49.8446 489.028 0.107489 -0.589748 0.800402
7.29741 -49.7212 489.132 0.10731 -0.602341 0.790993
6.95187 -49.6814 489.247 0.14488 -0.591457 0.793214
6.59874 -49.637 489.361 0.108467 -0.581877 0.806011
6.13937 -49.5231 489.467 0.057536 -0.592788 0.803301
5.6812 -49.4104 489.573 0.0703876 -0.555987 0.828205
5.27781 -49.3339 489.684 0.0705049 -0.550773 0.831672
4.75316 -49.1784 489.786 -0.044246 -0.607589 0.793018
4.18939 -48.9977 489.886 -0.0803641 -0.615869 0.783739
16.817 -38.0617 476.601 0.939942 0.250543 -0.231811
16.9209 -38.3259 476.757 0.943348 0.215737 -0.252096
17.0262 -38.5909 476.914 0.955188 0.220415 -0.197566
17.0865 -38.8241 477.065 0.962395 0.22415 -0.15347
17.1985 -39.0934 477.222 0.951585 0.227361 -0.206866
17.3051 -39.3587 477.377 0.955534 0.211805 -0.205166
17.367 -39.5925 477.528 0.969406 0.178839 -0.168135
17.4547 -39.8443 477.682 0.973096 0.135416 -0.186407
17.5005 -40.0666 477.831 0.972665 0.150348 -0.176969
17.5465 -40.2888 477.98 0.981331 0.172333 -0.0853864
17.6278 -40.5355 478.132 0.987951 0.131278 -0.0819669
17.6381 -40.7326 478.277 0.98975 0.101003 -0.100967
17.6622 -40.9392 478.423 0.991041 0.116639 -0.0650578
17.7076 -41.1605 478.571 0.993594 0.11281 -0.00675606
17.7209 -41.3593 478.716 0.994276 0.106757 0.00433122
17.7392 -41.5615 478.861 0.99325 0.11552 0.0104625
17.7579 -41.7638 479.007 0.99289 0.109426 0.0468459
17.772 -41.9614 479.153 0.989764 0.0929006 0.108341
17.7858 -42.161 479.296 0.991711 0.0473368 0.119453
17.7457 -42.3188 479.438 0.996889 0.0601381 0.0509557
17.7786 -42.5333 479.582 0.991625 0.091835 0.090808
17.776 -42.7217 479.723 0.987047 0.0670563 0.145747
17.7529 -42.8962 479.862 0.989387 0.052512 0.135481
17.7525 -43.0829 480.006 0.989903 0.0222165 0.139997
17.7272 -43.2541 480.146 0.994746 0.00328606 0.102317
17.7226 -43.4394 480.288 0.991848 -0.0105762 0.126986
17.6945 -43.6084 480.428 0.98683 -0.0493842 0.154038
17.6767 -43.784 480.569 0.991804 -0.0592556 0.113196
17.6442 -43.9503 480.708 0.973119 -0.0920453 0.211111
17.5553 -44.0774 480.841 0.965541 -0.0580996 0.253683
17.5336 -44.2506 480.981 0.979232 -0.00796902 0.202587
17.5055 -44.4193 481.12 0.969477 -0.048547 0.240326
17.4576 -44.5744 481.258 0.963654 -0.0979735 0.248538
17.3927 -44.7177 481.393 0.968439 -0.0824418 0.235224
17.364 -44.8859 481.532 0.971487 -0.0128666 0.236743
17.318 -45.0421 481.67 0.943505 -0.0496988 0.327611
17.236 -45.1737 481.804 0.914377 -0.0905801 0.3946
17.2001 -45.3367 481.942 0.91262 -0.143409 0.38283
17.1084 -45.4616 482.075 0.917661 -0.189377 0.349335
17.0597 -45.6158 482.212 0.938423 -0.150209 0.311126
16.9702 -45.7421 482.345 0.95334 -0.108593 0.281693
16.9247 -45.8985 482.482 0.976401 -0.0430882 0.211625
16.896 -46.0662 482.621 0.961864 -0.0844527 0.260163
16.8074 -46.193 482.754 0.903782 -0.177062 0.38965
16.7101 -46.3139 482.886 0.830552 -0.243507 0.500888
16.5917 -46.4205 483.016 0.818083 -0.268027 0.508823
16.475 -46.5283 483.147 0.855287 -0.209704 0.473823
16.3777 -46.6492 483.279 0.871729 -0.158277 0.46372
16.2962 -46.7809 483.413 0.875456 -0.167651 0.453288
16.2046 -46.9057 483.545 0.869262 -0.1939 0.454737
16.1074 -47.0268 483.677 0.892434 -0.176575 0.415189
16.0107 -47.1481 483.81 0.902682 -0.134657 0.408697
15.9384 -47.2859 483.944 0.874078 -0.134559 0.466778
15.8413 -47.4067 484.076 0.823298 -0.193445 0.533629
15.7245 -47.5148 484.207 0.778983 -0.268995 0.566416
15.5992 -47.6171 484.337 0.774938 -0.332839 0.537297
15.4845 -47.7257 484.467 0.778651 -0.324609 0.536965
15.3435 -47.8175 484.595 0.759618 -0.313576 0.569781
15.2077 -47.9126 484.724 0.772969 -0.314929 0.550762
15.0791 -48.0125 484.853 0.772165 -0.337092 0.538637
14.9129 -48.0871 484.98 0.752192 -0.382507 0.536559
14.7822 -48.1857 485.109 0.78374 -0.314318 0.535682
14.6656 -48.2939 485.239 0.803758 -0.242681 0.543211
14.5483 -48.4015 485.37 0.765881 -0.300222 0.568588
14.395 -48.485 485.497 0.689998 -0.357409 0.629414
14.2258 -48.5577 485.623 0.582505 -0.382055 0.717441
14.0204 -48.6066 485.746 0.628462 -0.362618 0.688145
13.8904 -48.7059 485.876 0.792819 -0.300499 0.530225
13.7629 -48.807 486.005 0.787802 -0.263691 0.556629
13.6287 -48.9035 486.135 0.656403 -0.330255 0.678282
13.4212 -48.9511 486.257 0.562697 -0.425297 0.708869
13.2285 -49.0087 486.382 0.644515 -0.351551 0.678979
13.0908 -49.1031 486.511 0.646455 -0.309872 0.697191
12.8857 -49.1526 486.634 0.603707 -0.346797 0.717822
12.7048 -49.2143 486.762 0.576071 -0.404615 0.710232
12.5185 -49.2794 486.885 0.503427 -0.497301 0.706578
12.2798 -49.3088 487.005 0.48814 -0.491042 0.721524
12.0645 -49.3534 487.127 0.498266 -0.455012 0.738035
11.8474 -49.3931 487.251 0.49819 -0.435374 0.749837
11.6185 -49.4242 487.374 0.54986 -0.414331 0.725248
11.4567 -49.5064 487.5 0.648344 -0.415223 0.638153
11.2874 -49.5805 487.627 0.649097 -0.429498 0.627857
11.0852 -49.6315 487.752 0.523462 -0.429791 0.735709
10.8588 -49.6691 487.873 0.423477 -0.450373 0.786022
10.5722 -49.6658 487.991 0.295994 -0.448731 0.843225
10.2511 -49.6398 488.106 0.289985 -0.422468 0.858737
9.95533 -49.6309 488.223 0.398298 -0.408444 0.821299
9.70543 -49.6565 488.342 0.426402 -0.401898 0.810345
9.46539 -49.6804 488.465 0.425947 -0.431724 0.7951
9.22696 -49.7097 488.588 0.346724 -0.497619 0.795083
8.90487 -49.6841 488.703 0.263941 -0.528069 0.807142
8.60765 -49.6761 488.82 0.3499 -0.534654 0.76923
8.38074 -49.7123 488.944 0.377683 -0.555089 0.741102
8.07906 -49.7007 489.061 0.215331 -0.570005 0.792923
7.69021 -49.6319 489.172 0.120312 -0.579795 0.80583
7.32483 -49.5788 489.285 0.117648 -0.569739 0.813361
6.9117 -49.4946 489.395 0.151183 -0.534198 0.831731
6.48599 -49.4025 489.503 0.130929 -0.518713 0.844863
6.10775 -49.3418 489.616 0.0530846 -0.549372 0.83389
5.55032 -49.1639 489.715 0.0641429 -0.56292 0.824019
5.17549 -49.1061 489.828 0.0991718 -0.53877 0.836595
4.77312 -49.0305 489.94 -0.0232491 -0.565278 0.824573
4.08014 -48.7652 490.03 -0.0738647 -0.582368 0.809562
16.9378 -38.1741 476.908 0.954804 0.212144 -0.20819
16.9962 -38.4063 477.059 0.96153 0.200476 -0.187803
17.0994 -38.6698 477.214 0.951584 0.200359 -0.233117
17.1901 -38.9242 477.369 0.94473 0.20425 -0.256453
17.2737 -39.1735 477.522 0.955174 0.209981 -0.208687
17.3788 -39.4377 477.678 0.961638 0.209015 -0.177664
17.4528 -39.68 477.83 0.979227 0.165721 -0.11684
17.4727 -39.8842 477.976 0.98683 0.13231 -0.0930664
17.5354 -40.1183 478.126 0.976029 0.156606 -0.151137
17.5877 -40.3449 478.276 0.982808 0.167469 -0.0777389
17.6443 -40.5743 478.425 0.990019 0.140626 0.0092812
17.6668 -40.7792 478.572 0.993527 0.11197 -0.0191722
17.6797 -40.9786 478.716 0.993999 0.109058 -0.00846559
17.7035 -41.1848 478.862 0.994433 0.103897 0.0175415
17.7222 -41.3849 479.01 0.994963 0.0989213 0.0162383
17.7372 -41.5862 479.153 0.993964 0.0904617 0.0620731
17.7247 -41.768 479.294 0.993043 0.0970155 0.0667363
17.7473 -41.9729 479.439 0.989125 0.0880681 0.117797
17.7495 -42.1636 479.583 0.992007 0.0472345 0.117011
17.7226 -42.335 479.722 0.996759 0.0517116 0.0616265
17.7246 -42.5247 479.865 0.9902 0.0702493 0.120701
17.7327 -42.7192 480.009 0.990152 0.0679194 0.122414
17.7285 -42.9034 480.153 0.993488 0.0433937 0.105351
17.73 -43.0949 480.294 0.994333 -0.00095317 0.106309
17.6979 -43.2609 480.434 0.994712 -0.0171314 0.101262
17.6933 -43.4463 480.576 0.986977 0.000768835 0.160863
17.6529 -43.6068 480.714 0.969851 0.00106339 0.243694
17.6049 -43.762 480.851 0.943235 -0.0585705 0.326919
17.548 -43.9111 480.988 0.965166 -0.0667357 0.252985
17.5281 -44.0856 481.128 0.986903 -0.0379703 0.156785
17.4833 -44.243 481.266 0.979593 -0.0433153 0.196269
17.464 -44.4177 481.406 0.963189 -0.102194 0.248642
17.3899 -44.5548 481.541 0.956926 -0.156749 0.244382
17.3219 -44.6961 481.676 0.974372 -0.0839669 0.208685
17.2921 -44.8635 481.815 0.953347 -0.121767 0.276228
17.2165 -44.9994 481.95 0.955671 -0.18253 0.231034
17.167 -45.1533 482.087 0.946813 -0.174979 0.27005
17.0838 -45.284 482.22 0.912318 -0.168605 0.373159
16.9896 -45.4071 482.353 0.923699 -0.107529 0.367721
16.942 -45.5622 482.49 0.940206 -0.059712 0.33533
16.8928 -45.7161 482.627 0.976403 -0.0438592 0.211458
16.8675 -45.8862 482.766 0.955321 -0.0872778 0.282391
16.794 -46.0234 482.901 0.882271 -0.154354 0.444717
16.6969 -46.1443 483.033 0.83789 -0.233403 0.49342
