-2.79329 -72.8403 457.319 0.107036 -0.833559 -0.541963
-2.59669 -72.778 457.282 0.117838 -0.828142 -0.547992
-2.41984 -72.7156 457.213 0.127877 -0.816264 -0.563348
-2.21499 -72.6533 457.189 0.132282 -0.820055 -0.556787
-2.02439 -72.591 457.143 0.11351 -0.836095 -0.536713
-1.85663 -72.5285 457.059 0.0795886 -0.843427 -0.531316
-1.68952 -72.4661 456.974 0.127246 -0.811273 -0.570652
-1.47419 -72.4037 456.967 0.136794 -0.811742 -0.567769
-1.30157 -72.3413 456.891 0.103793 -0.833328 -0.542947
-1.08535 -72.2789 456.885 0.142535 -0.809068 -0.570169
-0.91083 -72.2164 456.811 0.130334 -0.81846 -0.559585
-0.7286 -72.154 456.751 0.0854634 -0.849514 -0.520598
-0.562887 -72.0915 456.663 0.0397481 -0.862116 -0.50515
-0.401702 -72.0289 456.569 0.103376 -0.819835 -0.563192
-0.193842 -71.9663 456.548 0.136817 -0.807206 -0.574195
-0.000609854 -71.9041 456.506 0.125121 -0.8133 -0.568232
0.210077 -71.8415 456.489 0.123511 -0.81708 -0.563138
0.38054 -71.779 456.409 0.0660026 -0.848435 -0.525168
0.546195 -71.7164 456.321 0.125975 -0.798085 -0.589228
0.778313 -71.6539 456.339 0.128101 -0.79837 -0.588383
0.946893 -71.5914 456.256 0.0469738 -0.845747 -0.531513
1.10782 -71.5288 456.161 0.0977148 -0.815107 -0.57101
1.27276 -71.4662 456.072 0.114206 -0.827432 -0.54983
1.45836 -71.4037 456.015 0.0711552 -0.86365 -0.499045
1.62009 -71.341 455.921 0.0860652 -0.855726 -0.51022
1.83033 -71.2785 455.903 0.0792174 -0.844471 -0.52971
1.99868 -71.2159 455.82 0.110696 -0.798636 -0.591546
2.18567 -71.1533 455.765 0.129577 -0.790766 -0.598246
2.37654 -71.0907 455.716 0.0650092 -0.841135 -0.536904
2.54795 -71.0281 455.638 0.074615 -0.832913 -0.548351
2.72405 -70.9655 455.566 0.0998997 -0.82575 -0.555119
2.88823 -70.9028 455.476 0.102715 -0.838556 -0.535045
3.0711 -70.8402 455.414 0.105762 -0.84154 -0.52974
3.27577 -70.7775 455.387 0.0807354 -0.843079 -0.531694
3.45115 -70.7149 455.314 0.0484462 -0.835011 -0.548096
3.63636 -70.6522 455.256 0.0662661 -0.807962 -0.585496
3.81577 -70.5896 455.189 0.068215 -0.801492 -0.594102
3.97641 -70.5268 455.093 0.0582247 -0.818026 -0.572226
4.15911 -70.4643 455.03 0.0441449 -0.838419 -0.543235
4.32378 -70.4016 454.941 0.0666602 -0.828577 -0.555892
4.51435 -70.3389 454.891 0.119142 -0.788539 -0.603334
4.70775 -70.2761 454.845 0.111073 -0.790147 -0.602769
4.90342 -70.2134 454.803 0.0781939 -0.820497 -0.566278
5.07245 -70.1506 454.72 0.0653677 -0.83503 -0.546307
5.23425 -70.0881 454.625 0.0706477 -0.843225 -0.532899
5.41824 -70.0253 454.564 0.073453 -0.826207 -0.558557
5.58884 -69.9626 454.483 0.0655131 -0.811247 -0.581021
5.78 -69.8998 454.434 0.109041 -0.79682 -0.594297
5.98641 -69.8369 454.408 0.110171 -0.811203 -0.574293
6.16792 -69.7741 454.344 0.0835246 -0.828974 -0.553014
6.33693 -69.7115 454.26 0.076823 -0.823138 -0.562621
6.51142 -69.6487 454.184 0.0330872 -0.839653 -0.542115
6.67162 -69.5859 454.086 0.0350579 -0.831529 -0.554374
6.83531 -69.5234 453.995 0.106064 -0.802993 -0.586475
7.05774 -69.4603 453.993 0.119616 -0.800714 -0.586983
7.25222 -69.3974 453.948 0.0696655 -0.826465 -0.558661
7.43139 -69.3346 453.879 0.0874604 -0.815037 -0.572771
7.6219 -69.2716 453.827 0.103795 -0.803288 -0.586476
7.79281 -69.2093 453.747 0.060339 -0.832257 -0.551097
7.9537 -69.1463 453.65 0.0801492 -0.827453 -0.555786
8.15746 -69.0831 453.617 0.0944413 -0.816024 -0.57025
8.32621 -69.021 453.534 0.0627973 -0.826979 -0.558715
8.49624 -68.9569 453.449 0.0740166 -0.817804 -0.570718
8.68106 -68.8952 453.394 0.0914861 -0.80698 -0.58345
8.88287 -68.8317 453.356 0.078171 -0.806337 -0.586268
9.0455 -68.7691 453.262 0.0678918 -0.81367 -0.577349
9.24334 -68.706 453.221 0.0529581 -0.834034 -0.549165
9.40715 -68.6433 453.129 0.0854343 -0.821099 -0.564356
9.61602 -68.5801 453.105 0.141891 -0.793606 -0.591656
9.79497 -68.5172 453.035 0.108449 -0.829244 -0.548263
9.97718 -68.4542 452.97 0.0578665 -0.857621 -0.511016
10.1458 -68.3916 452.884 0.0628426 -0.837329 -0.543075
10.3138 -68.3286 452.799 0.0909043 -0.817297 -0.569
10.5178 -68.2654 452.766 0.0659856 -0.8343 -0.547348
10.6893 -68.2026 452.685 0.0384579 -0.845597 -0.532434
10.8646 -68.1398 452.609 0.0851296 -0.819582 -0.566602
11.0402 -68.0769 452.534 0.133582 -0.793318 -0.593972
11.233 -68.0137 452.485 0.088711 -0.82408 -0.559484
11.4084 -67.9501 452.404 0.0270791 -0.85722 -0.514238
11.573 -67.8885 452.318 0.0120046 -0.856586 -0.515865
11.7341 -67.8254 452.22 0.0553765 -0.828158 -0.557753
11.94 -67.762 452.191 0.0911992 -0.798202 -0.595446
12.1115 -67.6992 452.109 0.0608122 -0.809977 -0.5833
12.2909 -67.6362 452.039 0.0542889 -0.820377 -0.56924
12.4675 -67.5732 451.963 0.0898401 -0.811924 -0.576809
12.6431 -67.5104 451.892 0.121471 -0.80629 -0.578914
12.841 -67.447 451.847 0.145587 -0.800789 -0.580982
13.049 -67.3836 451.82 0.103809 -0.828981 -0.549558
13.2191 -67.3207 451.736 0.03044 -0.851296 -0.523802
13.3844 -67.2575 451.641 0.031405 -0.831675 -0.554374
13.5732 -67.1952 451.593 0.0853554 -0.797118 -0.597761
13.7687 -67.1314 451.542 0.0699963 -0.817397 -0.571807
13.9299 -67.0689 451.445 0.0309867 -0.846134 -0.532069
14.0922 -67.0057 451.35 0.0729684 -0.820142 -0.567488
14.2795 -66.9428 451.29 0.0873862 -0.813211 -0.575371
14.4735 -66.8796 451.241 0.0469202 -0.835459 -0.547547
14.634 -66.8168 451.143 0.0209507 -0.846881 -0.53137
14.7948 -66.7538 451.045 0.0598557 -0.821014 -0.567762
14.9845 -66.6908 450.99 0.0831284 -0.806677 -0.585117
15.1609 -66.6277 450.914 0.0811537 -0.806812 -0.585207
15.3687 -66.5641 450.886 0.146502 -0.754889 -0.639281
15.6051 -66.4999 450.899 0.167806 -0.733624 -0.658512
15.8195 -66.4361 450.88 0.0923112 -0.753784 -0.650606
15.9838 -66.3727 450.781 0.00400614 -0.794394 -0.60739
16.1422 -66.3105 450.684 -0.03493 -0.81569 -0.577434
-4.49008 -73.2047 457.889 -0.594031 -0.587081 -0.549966
-4.40905 -73.1524 457.658 -0.498522 -0.685427 -0.530722
-4.32158 -73.0897 457.444 -0.227303 -0.682037 -0.695096
-4.16321 -73.0273 457.346 0.0144238 -0.725877 -0.687674
-3.99847 -72.9649 457.258 0.112739 -0.78709 -0.606448
-3.79439 -72.9028 457.234 0.127343 -0.819918 -0.558138
-3.61236 -72.8405 457.175 0.106421 -0.845722 -0.522905
-3.41781 -72.7782 457.135 0.114911 -0.835225 -0.537768
-3.25198 -72.7159 457.049 0.0928496 -0.839334 -0.535629
-3.07738 -72.6535 456.977 0.104549 -0.830782 -0.546691
-2.88067 -72.5912 456.941 0.135013 -0.81708 -0.560493
-2.68415 -72.529 456.904 0.118132 -0.833586 -0.53961
-2.52317 -72.4665 456.81 0.122327 -0.839492 -0.529424
-2.34108 -72.4042 456.749 0.140214 -0.824152 -0.548738
-2.11384 -72.342 456.762 0.0980929 -0.827392 -0.552992
-1.9492 -72.2795 456.673 0.109207 -0.815234 -0.568742
-1.75078 -72.2172 456.639 0.119635 -0.811959 -0.571323
-1.5797 -72.1547 456.561 0.108163 -0.819585 -0.562655
-1.39792 -72.0924 456.5 0.136331 -0.815067 -0.563098
-1.1992 -72.0299 456.466 0.109663 -0.837334 -0.53558
-1.02507 -71.9675 456.393 0.101258 -0.832312 -0.54498
-0.820851 -71.9051 456.367 0.0648871 -0.83531 -0.545937
-0.658044 -71.8426 456.275 0.0773651 -0.812746 -0.577459
-0.46781 -71.7802 456.228 0.130327 -0.795611 -0.591623
-0.281217 -71.7177 456.174 0.119874 -0.820632 -0.558743
-0.118977 -71.6552 456.081 0.117202 -0.825399 -0.55225
0.0851966 -71.5928 456.055 0.120417 -0.824509 -0.552887
0.295756 -71.5303 456.039 0.134444 -0.81728 -0.560338
0.45728 -71.4678 455.945 0.124799 -0.828269 -0.546256
0.647857 -71.4053 455.897 0.0782102 -0.849567 -0.52165
0.820741 -71.3426 455.82 0.0493461 -0.850478 -0.523691
0.989407 -71.2803 455.738 0.0514107 -0.840055 -0.54006
1.14935 -71.2177 455.641 0.0446195 -0.836677 -0.545876
1.31934 -71.1552 455.561 0.103304 -0.80211 -0.588173
1.53109 -71.0924 455.544 0.141918 -0.784521 -0.603645
1.73698 -71.0303 455.524 0.111211 -0.810263 -0.575418
1.92877 -70.9674 455.475 0.092443 -0.823949 -0.559073
2.08957 -70.9046 455.379 0.0761438 -0.837208 -0.541558
2.26893 -70.8426 455.314 0.0579087 -0.837547 -0.543288
2.42933 -70.7798 455.217 0.0468187 -0.834963 -0.54831
2.61059 -70.7172 455.154 0.0677532 -0.824079 -0.562408
2.78981 -70.6546 455.087 0.11127 -0.790892 -0.601754
2.99107 -70.592 455.055 0.12374 -0.784479 -0.607685
3.19253 -70.5293 455.023 0.092115 -0.811869 -0.576528
3.36845 -70.4666 454.951 0.0921367 -0.817586 -0.568387
3.56247 -70.404 454.907 0.0623436 -0.836001 -0.545174
3.72204 -70.3414 454.809 0.0372025 -0.84655 -0.531007
3.88185 -70.2788 454.712 0.0446536 -0.840694 -0.539666
4.04966 -70.2163 454.627 0.0961889 -0.812033 -0.575631
4.26882 -70.1534 454.622 0.129936 -0.79196 -0.596586
4.45156 -70.0907 454.56 0.0902623 -0.819601 -0.565781
4.61208 -70.0279 454.463 0.0661119 -0.840044 -0.538475
4.77986 -69.9658 454.38 0.0402731 -0.85242 -0.521304
4.94088 -69.903 454.283 0.103691 -0.812904 -0.573093
5.18522 -69.8397 454.315 0.110111 -0.791118 -0.601671
5.35539 -69.7777 454.236 0.0379195 -0.813147 -0.580822
5.51702 -69.7147 454.14 0.0641196 -0.807343 -0.586589
5.67742 -69.652 454.043 0.0987771 -0.815808 -0.569825
5.87426 -69.5889 454 0.108758 -0.819234 -0.563052
6.07506 -69.5268 453.972 0.0893261 -0.820882 -0.564068
6.2612 -69.4635 453.91 0.0539454 -0.833456 -0.549946
6.43286 -69.4013 453.832 0.0217777 -0.84154 -0.539755
6.5935 -69.3383 453.735 0.0876835 -0.80232 -0.590418
6.7909 -69.2754 453.695 0.117058 -0.795473 -0.594575
6.95226 -69.2123 453.597 0.0853071 -0.833021 -0.546625
7.13413 -69.1503 453.538 0.113294 -0.832932 -0.541654
7.32724 -69.0871 453.488 0.107355 -0.836163 -0.537872
7.51113 -69.0244 453.427 0.0579481 -0.846995 -0.528434
7.67635 -68.9616 453.338 0.0886022 -0.819697 -0.565904
7.88037 -68.8986 453.307 0.110221 -0.814366 -0.569788
8.06118 -68.8358 453.241 0.0866834 -0.837529 -0.539473
8.25889 -68.7728 453.199 0.0836318 -0.821417 -0.564163
8.43114 -68.7101 453.123 0.105713 -0.793016 -0.599958
8.63801 -68.6469 453.095 0.0853615 -0.822528 -0.562282
8.79864 -68.584 452.997 0.0520566 -0.844458 -0.533086
8.95791 -68.5221 452.899 0.0543033 -0.845309 -0.531511
9.11839 -68.4591 452.801 0.0874045 -0.836308 -0.541247
9.30474 -68.3962 452.743 0.104292 -0.826436 -0.553287
9.47386 -68.3334 452.659 0.0919893 -0.829514 -0.550858
9.67323 -68.2703 452.62 0.102589 -0.828407 -0.550652
9.86433 -68.2073 452.569 0.0851556 -0.836512 -0.541291
10.0536 -68.1443 452.516 0.0838361 -0.827855 -0.554641
10.2158 -68.0817 452.42 0.0679669 -0.830578 -0.552739
10.3874 -68.0191 452.339 0.0473355 -0.840941 -0.539053
10.5496 -67.956 452.245 0.0865431 -0.822383 -0.562313
10.7676 -67.8928 452.234 0.12138 -0.806111 -0.579182
10.9579 -67.8299 452.181 0.0826459 -0.835922 -0.542591
11.1191 -67.7669 452.085 0.0488909 -0.850943 -0.522978
11.2909 -67.7044 452.003 0.0217439 -0.834712 -0.550258
11.4569 -67.6414 451.915 0.0601261 -0.787873 -0.612896
11.6581 -67.5783 451.878 0.0957671 -0.786437 -0.610201
11.8462 -67.5152 451.821 0.0537828 -0.827802 -0.558436
12.0069 -67.4526 451.724 0.0426832 -0.841986 -0.537808
12.1688 -67.3899 451.628 0.0718413 -0.837518 -0.541667
12.3598 -67.3268 451.576 0.100169 -0.816795 -0.568166
12.5435 -67.2637 451.513 0.124994 -0.795907 -0.592376
12.7434 -67.2004 451.474 0.135356 -0.807495 -0.574135
12.9565 -67.1368 451.454 0.0904394 -0.84039 -0.534383
13.132 -67.0739 451.379 0.0692478 -0.842424 -0.534347
13.3003 -67.0111 451.292 0.0772583 -0.833137 -0.547644
13.4619 -66.9478 451.194 0.0638537 -0.847192 -0.527435
13.6348 -66.886 451.12 0.0617205 -0.852114 -0.519704
13.8213 -66.8224 451.056 0.0807551 -0.830645 -0.550915
14.0096 -66.7593 450.999 0.0885242 -0.822349 -0.562054
14.1777 -66.6964 450.912 0.0590435 -0.844906 -0.531646
14.3444 -66.6336 450.823 0.0538023 -0.84963 -0.524628
14.5365 -66.5703 450.77 0.0824315 -0.835478 -0.543306
14.7119 -66.5075 450.698 0.101018 -0.824417 -0.556895
14.9161 -66.4439 450.662 0.116676 -0.801018 -0.58716
15.1088 -66.3805 450.611 0.160116 -0.745697 -0.64676
15.3244 -66.3167 450.594 0.214257 -0.703376 -0.677758
15.5848 -66.252 450.643 0.107684 -0.751056 -0.651398
15.7493 -66.1892 450.55 -0.0481574 -0.750831 -0.658737
-4.63583 -73.0291 457.764 -0.75523 -0.498196 -0.425944
-4.54941 -72.9653 457.549 -0.654726 -0.590068 -0.472392
-4.43195 -72.896 457.388 -0.538906 -0.639101 -0.548754
-4.36409 -72.8382 457.139 -0.387536 -0.677782 -0.624841
-4.24023 -72.7784 456.983 -0.152473 -0.685461 -0.711966
-4.08784 -72.7161 456.876 -0.00400427 -0.755644 -0.654971
-3.92908 -72.6538 456.778 0.0966968 -0.801394 -0.590269
-3.72204 -72.5916 456.76 0.129054 -0.818577 -0.559711
-3.53078 -72.5294 456.715 0.101509 -0.835825 -0.53953
-3.34125 -72.4671 456.667 0.0962271 -0.830497 -0.548648
-3.181 -72.4047 456.572 0.112211 -0.82809 -0.54925
-2.9973 -72.3425 456.515 0.0920884 -0.844324 -0.527861
-2.83249 -72.2801 456.428 0.134408 -0.822292 -0.552965
-2.57819 -72.218 456.484 0.186725 -0.789904 -0.584111
-2.40813 -72.1556 456.405 0.120551 -0.825133 -0.551926
-2.22214 -72.0933 456.351 0.112921 -0.82922 -0.547396
-2.03354 -72.031 456.302 0.119959 -0.820334 -0.559161
-1.84073 -71.9686 456.259 0.0788787 -0.832586 -0.54825
-1.68035 -71.9062 456.164 0.105492 -0.820065 -0.562463
-1.48263 -71.8439 456.128 0.128586 -0.814228 -0.566125
-1.28955 -71.7815 456.086 0.13789 -0.809341 -0.570923
-1.0854 -71.7191 456.06 0.113844 -0.823976 -0.55507
-0.912501 -71.6567 455.985 0.0700329 -0.843176 -0.533057
-0.748498 -71.5942 455.896 0.0886443 -0.832179 -0.547376
-0.573884 -71.5318 455.823 0.111907 -0.827285 -0.550523
-0.357073 -71.4694 455.817 0.105131 -0.81448 -0.570588
-0.196826 -71.4069 455.722 0.106179 -0.807165 -0.580699
-0.0222556 -71.3445 455.649 0.111384 -0.817965 -0.564382
0.178174 -71.282 455.617 0.118022 -0.81157 -0.57221
0.383263 -71.2195 455.593 0.102422 -0.820838 -0.561903
0.552586 -71.157 455.511 0.0761483 -0.838871 -0.538978
0.741811 -71.0946 455.461 0.0733728 -0.836869 -0.542463
0.923784 -71.0319 455.399 0.0640443 -0.834365 -0.54748
1.10578 -70.9696 455.339 0.0958137 -0.808734 -0.580318
1.28341 -70.907 455.27 0.121488 -0.796644 -0.592114
1.45873 -70.8445 455.198 0.10987 -0.826476 -0.552147
1.62535 -70.782 455.112 0.0938939 -0.846747 -0.523645
1.81691 -70.7195 455.065 0.103982 -0.833303 -0.54295
2.01553 -70.6569 455.029 0.0850726 -0.835149 -0.543405
2.18831 -70.5943 454.954 0.0576426 -0.840474 -0.538777
2.35822 -70.5318 454.872 0.0953624 -0.81379 -0.573282
2.56646 -70.4691 454.851 0.120673 -0.806804 -0.578365
2.74334 -70.4066 454.781 0.113433 -0.816279 -0.566411
2.91652 -70.344 454.705 0.0929756 -0.835266 -0.541927
3.08667 -70.2813 454.622 0.0974763 -0.839027 -0.535288
3.26715 -70.2192 454.56 0.0742463 -0.844334 -0.530648
3.42754 -70.1564 454.463 0.0502781 -0.848367 -0.527017
3.61892 -70.0937 454.415 0.0565952 -0.838108 -0.542561
3.78662 -70.0312 454.33 0.100897 -0.810444 -0.577062
3.97895 -69.9685 454.284 0.123308 -0.812751 -0.569413
4.15022 -69.9059 454.205 0.0787673 -0.842437 -0.533005
4.33817 -69.8432 454.15 0.0657779 -0.842945 -0.533964
4.51115 -69.7807 454.075 0.0659839 -0.84267 -0.534372
4.69949 -69.718 454.022 0.146077 -0.790459 -0.594841
4.9101 -69.6551 454.003 0.154864 -0.795247 -0.586173
5.09314 -69.5924 453.942 0.0571545 -0.850661 -0.522599
5.25288 -69.5297 453.844 0.0185393 -0.852552 -0.522314
5.41261 -69.4674 453.748 0.0731199 -0.823933 -0.56195
5.61175 -69.4045 453.71 0.12124 -0.79419 -0.595452
5.79123 -69.3418 453.643 0.100289 -0.813822 -0.572395
5.96939 -69.2791 453.574 0.0820383 -0.837765 -0.539832
6.14535 -69.2164 453.501 0.062267 -0.851169 -0.521185
6.31638 -69.1538 453.421 0.0797119 -0.827562 -0.555687
6.50545 -69.0911 453.367 0.068234 -0.828722 -0.555486
6.665 -69.0285 453.27 0.0436913 -0.850696 -0.523838
6.82523 -68.9658 453.173 0.103426 -0.822399 -0.559431
7.03223 -68.9029 453.148 0.134645 -0.804785 -0.578093
7.23595 -68.8399 453.118 0.0867451 -0.827074 -0.555359
7.40815 -68.7773 453.038 0.0747069 -0.828706 -0.554675
7.57883 -68.7149 452.958 0.0815409 -0.831207 -0.549951
7.73984 -68.6521 452.861 0.134419 -0.816697 -0.561193
7.97946 -68.5886 452.886 0.136848 -0.822018 -0.552774
8.14556 -68.526 452.797 0.0911721 -0.848327 -0.521564
8.30962 -68.4634 452.706 0.087356 -0.84736 -0.523784
8.48853 -68.4004 452.634 0.0550459 -0.853409 -0.518326
8.66227 -68.3384 452.561 0.0381835 -0.855954 -0.515641
8.82327 -68.2753 452.464 0.0884726 -0.83213 -0.547478
9.03927 -68.212 452.451 0.110673 -0.819201 -0.562726
9.22194 -68.1492 452.388 0.0758759 -0.83094 -0.551163
9.38418 -68.0866 452.293 0.0967505 -0.818143 -0.566817
9.57396 -68.0236 452.241 0.109046 -0.823262 -0.55709
9.7538 -67.9607 452.173 0.110962 -0.836935 -0.535936
9.96325 -67.8975 452.15 0.0741159 -0.8387 -0.539527
10.1259 -67.8349 452.056 0.033488 -0.83065 -0.555787
10.3078 -67.772 451.991 0.066834 -0.81051 -0.581899
10.4693 -67.7093 451.893 0.0908292 -0.812064 -0.576456
10.6418 -67.6466 451.817 0.0825449 -0.831886 -0.548773
10.8361 -67.5835 451.769 0.118275 -0.812916 -0.570245
11.079 -67.5198 451.795 0.0942626 -0.817897 -0.567591
11.2398 -67.457 451.699 0.0399972 -0.824965 -0.563767
11.3996 -67.3943 451.601 0.0575455 -0.818468 -0.571664
11.5606 -67.3311 451.503 0.0408887 -0.847102 -0.529856
11.7206 -67.2699 451.407 0.0270663 -0.86005 -0.509491
11.8822 -67.2066 451.309 0.0864584 -0.827967 -0.554072
12.0959 -67.1431 451.291 0.113906 -0.802994 -0.585001
12.2793 -67.0801 451.228 0.0825719 -0.820958 -0.564987
12.4422 -67.0175 451.134 0.107872 -0.815796 -0.56819
12.6235 -66.9545 451.067 0.113867 -0.828306 -0.548584
12.8074 -66.8915 451.004 0.0972628 -0.848349 -0.520427
13 -66.8285 450.954 0.0709838 -0.856159 -0.511813
13.1639 -66.7654 450.862 0.0582636 -0.856627 -0.512637
13.3372 -66.7028 450.783 0.094602 -0.835605 -0.541124
13.5343 -66.6395 450.739 0.0984372 -0.832947 -0.544527
13.7009 -66.5768 450.65 0.0748734 -0.840124 -0.537202
13.8853 -66.5137 450.588 0.0508437 -0.846371 -0.530161
14.0458 -66.4507 450.49 0.0527658 -0.847748 -0.527768
14.2075 -66.3883 450.395 0.0881358 -0.835095 -0.543
14.4016 -66.3252 450.345 0.136038 -0.803552 -0.579481
14.6228 -66.2613 450.337 0.174632 -0.766658 -0.61785
14.8638 -66.197 450.358 0.174155 -0.754383 -0.632912
15.0739 -66.1317 450.336 0.24797 -0.631022 -0.735066
15.367 -66.0678 450.431 0.217025 -0.585207 -0.781302
15.6076 -66.0036 450.451 0.00477403 -0.651465 -0.758663
-4.70618 -72.8387 457.771 -0.93528 -0.190485 -0.298274
-4.65609 -72.7785 457.494 -0.851769 -0.336346 -0.401698
-4.59071 -72.7158 457.244 -0.712437 -0.509595 -0.482439
-4.46987 -72.6493 457.088 -0.617379 -0.555954 -0.556559
-4.35502 -72.5792 456.924 -0.535295 -0.582589 -0.611595
-4.27435 -72.5253 456.694 -0.410835 -0.662412 -0.626439
-4.15535 -72.4677 456.529 -0.154653 -0.68707 -0.709942
-3.99687 -72.4054 456.432 0.0527422 -0.730521 -0.680851
-3.80752 -72.3433 456.384 0.103841 -0.798496 -0.592977
-3.62877 -72.281 456.319 0.0863082 -0.843519 -0.530119
-3.45647 -72.2187 456.244 0.0964411 -0.840681 -0.532874
-3.26039 -72.1565 456.208 0.0883662 -0.836936 -0.54012
-3.0964 -72.0942 456.119 0.133901 -0.806864 -0.575362
-2.90868 -72.0319 456.068 0.189215 -0.780677 -0.595602
-2.68133 -71.9697 456.082 0.123566 -0.82993 -0.544011
-2.51839 -71.9074 455.991 0.13099 -0.826322 -0.547753
-2.30023 -71.8451 455.99 0.144529 -0.812945 -0.56412
-2.122 -71.7828 455.924 0.0867391 -0.842346 -0.531911
-1.94972 -71.7204 455.848 0.0975191 -0.83766 -0.537416
-1.763 -71.6581 455.795 0.126804 -0.812543 -0.568941
-1.57794 -71.5956 455.739 0.128786 -0.805933 -0.577829
-1.39208 -71.5334 455.686 0.120443 -0.822417 -0.555988
-1.20512 -71.471 455.633 0.0858568 -0.848923 -0.521497
-1.03142 -71.4086 455.56 0.0750226 -0.845736 -0.528301
-0.852529 -71.3462 455.494 0.148834 -0.795948 -0.586784
-0.628549 -71.2838 455.501 0.13134 -0.818873 -0.558746
-0.466155 -71.2214 455.409 0.0971666 -0.850484 -0.516948
-0.256738 -71.1589 455.391 0.12682 -0.824478 -0.551501
-0.0856926 -71.0966 455.314 0.118077 -0.816994 -0.564428
0.0905877 -71.0341 455.243 0.0980346 -0.838145 -0.536564
0.258998 -70.9717 455.161 0.0949221 -0.843903 -0.528031
0.443214 -70.9092 455.103 0.10034 -0.837294 -0.537467
0.610325 -70.8468 455.018 0.0971513 -0.83095 -0.547799
0.804215 -70.7841 454.974 0.103885 -0.82453 -0.5562
0.985477 -70.7221 454.915 0.0780978 -0.846249 -0.527033
1.1457 -70.6595 454.818 0.0756013 -0.846853 -0.526426
1.33616 -70.5969 454.77 0.105931 -0.819493 -0.563213
1.52936 -70.5344 454.726 0.116979 -0.813327 -0.569926
1.70273 -70.4719 454.651 0.112098 -0.832658 -0.542323
1.89506 -70.4093 454.606 0.0937692 -0.843963 -0.528141
2.07112 -70.3469 454.535 0.0918835 -0.835292 -0.542074
2.2347 -70.2843 454.444 0.115859 -0.826298 -0.551188
2.43248 -70.2218 454.407 0.103322 -0.842157 -0.52924
2.60698 -70.1593 454.334 0.0826049 -0.849796 -0.520599
2.78655 -70.0967 454.268 0.1122 -0.828812 -0.548163
2.99774 -70.034 454.252 0.0942491 -0.835783 -0.54091
3.16537 -69.9715 454.166 0.0727263 -0.840944 -0.536212
3.34248 -69.909 454.099 0.0685385 -0.827789 -0.556838
3.51104 -69.8465 454.013 0.0592438 -0.824364 -0.562951
3.68289 -69.784 453.937 0.0990574 -0.817351 -0.567561
3.88639 -69.7212 453.907 0.0877998 -0.82801 -0.553796
4.04691 -69.6588 453.811 0.0640992 -0.840759 -0.537601
4.2146 -69.5962 453.727 0.0923385 -0.830007 -0.550057
4.4086 -69.5335 453.683 0.129343 -0.81478 -0.565159
4.58668 -69.471 453.614 0.150003 -0.815443 -0.559063
4.80507 -69.408 453.608 0.105108 -0.83923 -0.533522
4.97195 -69.3455 453.522 0.0411805 -0.857061 -0.513567
5.14001 -69.2829 453.438 0.0891176 -0.824352 -0.559019
5.34001 -69.2201 453.403 0.111016 -0.81741 -0.565258
5.51384 -69.1575 453.327 0.0662144 -0.839049 -0.540011
5.67693 -69.095 453.235 0.0615948 -0.835838 -0.54551
5.85358 -69.0324 453.164 0.0981203 -0.825051 -0.556474
6.06544 -68.9694 453.146 0.0970096 -0.828185 -0.551996
6.22534 -68.9069 453.05 0.0465986 -0.848756 -0.526727
6.38455 -68.8445 452.952 0.0404096 -0.84887 -0.527054
6.5688 -68.7817 452.891 0.0991238 -0.814246 -0.571995
6.7625 -68.7189 452.846 0.135912 -0.788491 -0.599841
6.9535 -68.656 452.797 0.0959273 -0.818962 -0.565773
7.12694 -68.5933 452.718 0.0611738 -0.838061 -0.542136
7.3019 -68.5309 452.647 0.0390282 -0.842984 -0.536521
7.46427 -68.4677 452.549 0.103884 -0.810694 -0.576181
7.65288 -68.4056 452.501 0.119909 -0.814392 -0.567791
7.82141 -68.3427 452.414 0.0931781 -0.838279 -0.537221
8.04514 -68.2794 452.414 0.101895 -0.821326 -0.561285
8.22351 -68.2168 452.344 0.0482122 -0.828344 -0.558142
8.38327 -68.1542 452.247 0.017664 -0.839203 -0.543532
8.54245 -68.0918 452.15 0.0742242 -0.810109 -0.581562
8.73436 -68.0288 452.099 0.113906 -0.792457 -0.599197
8.9196 -67.9659 452.04 0.0797958 -0.826421 -0.557369
9.10939 -67.903 451.988 0.0663326 -0.833679 -0.54825
9.26981 -67.8404 451.89 0.0617067 -0.839088 -0.540484
9.43255 -67.7777 451.797 0.146251 -0.796592 -0.586559
9.68528 -67.7141 451.839 0.143331 -0.807231 -0.572568
9.85464 -67.6513 451.758 0.0690372 -0.849103 -0.523696
10.0305 -67.5887 451.682 0.0590695 -0.849219 -0.524726
10.1939 -67.5258 451.59 0.0624321 -0.84281 -0.534578
10.3858 -67.4629 451.54 0.080204 -0.827975 -0.554999
10.5484 -67.3994 451.443 0.138275 -0.801073 -0.582376
10.7408 -67.3382 451.404 0.152101 -0.812677 -0.562514
10.9474 -67.2735 451.365 0.0767397 -0.862289 -0.500568
11.1056 -67.2115 451.269 0.0436845 -0.87171 -0.488071
11.2648 -67.149 451.171 0.0443922 -0.871451 -0.48847
11.428 -67.0864 451.076 0.0453408 -0.859184 -0.509654
11.6043 -67.0236 451.003 0.106478 -0.808149 -0.579273
11.8139 -66.9602 450.979 0.11456 -0.809686 -0.575573
11.9769 -66.8971 450.881 0.0761227 -0.844803 -0.529635
12.1672 -66.8349 450.837 0.0748559 -0.845741 -0.528317
12.3303 -66.7719 450.739 0.0724828 -0.83803 -0.540789
12.5105 -66.709 450.671 0.094562 -0.822239 -0.561231
12.6942 -66.646 450.608 0.0709947 -0.833587 -0.547807
12.862 -66.5833 450.521 0.0545424 -0.840015 -0.539814
13.0464 -66.5202 450.457 0.0864157 -0.823761 -0.560313
13.2222 -66.4575 450.387 0.10242 -0.816107 -0.568753
13.4346 -66.3939 450.363 0.0828011 -0.826892 -0.556232
13.5988 -66.3315 450.272 0.0376375 -0.84374 -0.535432
13.7594 -66.2686 450.175 0.0238148 -0.841114 -0.540334
13.938 -66.2057 450.104 0.0808965 -0.802895 -0.590606
14.1472 -66.1421 450.078 0.148882 -0.750484 -0.643901
14.3601 -66.0783 450.058 0.182954 -0.696998 -0.693341
14.5769 -66.0145 450.044 0.263272 -0.593646 -0.760442
14.9001 -65.9385 450.199 0.318329 -0.504092 -0.802844
15.1656 -65.8833 450.244 0.286094 -0.484246 -0.826835
15.4377 -65.8183 450.31 0.0983839 -0.582109 -0.807137
-4.75376 -72.6583 457.809 -0.980312 -0.102308 -0.168882
-4.72332 -72.5953 457.502 -0.96202 -0.157697 -0.222822
-4.65849 -72.5324 457.251 -0.90841 -0.155137 -0.388231
-4.57793 -72.4655 457.029 -0.802048 -0.303374 -0.514474
-4.49927 -72.4071 456.799 -0.69867 -0.506964 -0.504824
-4.385 -72.3384 456.633 -0.615437 -0.592099 -0.520246
-4.28771 -72.2781 456.435 -0.508376 -0.623921 -0.593529
-4.19346 -72.216 456.233 -0.329877 -0.667889 -0.667163
-4.08273 -72.1573 456.056 -0.132784 -0.721981 -0.679053
-3.92454 -72.0951 455.958 0.00857172 -0.773922 -0.633223
-3.7409 -72.033 455.901 0.090617 -0.795339 -0.599354
-3.55315 -71.9708 455.852 0.0992399 -0.819026 -0.565108
-3.3698 -71.9086 455.795 0.118382 -0.814821 -0.567497
-3.15395 -71.8464 455.79 0.151792 -0.790957 -0.592745
-2.98887 -71.7841 455.703 0.121375 -0.828512 -0.546658
-2.79998 -71.7218 455.655 0.150256 -0.820873 -0.550991
-2.59248 -71.6596 455.636 0.146445 -0.815734 -0.559582
-2.41908 -71.5973 455.563 0.0899594 -0.847243 -0.523534
-2.24193 -71.535 455.495 0.129127 -0.828657 -0.544659
-2.02591 -71.4727 455.49 0.146425 -0.813377 -0.563007
-1.83397 -71.4103 455.446 0.103962 -0.831332 -0.545967
-1.66937 -71.348 455.358 0.0984743 -0.842623 -0.529423
-1.494 -71.2857 455.288 0.111008 -0.838474 -0.533516
-1.30159 -71.2234 455.244 0.102841 -0.826346 -0.553693
-1.11528 -71.161 455.191 0.109306 -0.809306 -0.577127
-0.955547 -71.0986 455.095 0.086047 -0.838957 -0.537352
-0.795316 -71.0364 455 0.126378 -0.829855 -0.543479
-0.576753 -70.9739 454.998 0.160733 -0.810576 -0.563145
-0.378798 -70.9115 454.963 0.100543 -0.846118 -0.523427
-0.211222 -70.8491 454.879 0.0885063 -0.847176 -0.523888
-0.0216046 -70.7867 454.831 0.100412 -0.831517 -0.546348
0.162091 -70.7243 454.773 0.11663 -0.819423 -0.561199
0.376869 -70.6617 454.764 0.103486 -0.824463 -0.556373
0.536614 -70.5993 454.668 0.0813887 -0.840615 -0.535483
0.702873 -70.5371 454.583 0.0793731 -0.84531 -0.528347
0.89122 -70.4743 454.529 0.094447 -0.812247 -0.575617
1.08842 -70.4124 454.496 0.0913289 -0.799376 -0.59385
1.2488 -70.3496 454.399 0.066282 -0.833394 -0.548691
1.41891 -70.2872 454.319 0.100609 -0.830709 -0.547541
1.61195 -70.2245 454.274 0.114804 -0.822665 -0.556815
1.79711 -70.1623 454.22 0.0802963 -0.836718 -0.541716
1.97686 -70.0997 454.154 0.0820505 -0.834487 -0.544885
2.14551 -70.0373 454.071 0.09867 -0.826115 -0.554796
2.33537 -69.9747 454.022 0.083343 -0.821958 -0.563417
2.51216 -69.9122 453.952 0.0983368 -0.801064 -0.590445
2.69316 -69.8497 453.889 0.100926 -0.819436 -0.564214
2.87225 -69.7872 453.823 0.116281 -0.826199 -0.551247
3.09537 -69.7243 453.825 0.103414 -0.834638 -0.541004
3.2551 -69.662 453.729 0.0437556 -0.852928 -0.520192
3.41452 -69.5996 453.632 0.0807878 -0.818295 -0.569093
3.6015 -69.537 453.577 0.0773503 -0.822969 -0.562796
3.7689 -69.4743 453.491 0.0536922 -0.842167 -0.536536
3.9515 -69.4121 453.433 0.0779715 -0.832244 -0.548899
4.11601 -69.3493 453.34 0.0920656 -0.828462 -0.552427
4.30425 -69.2871 453.291 0.143534 -0.804298 -0.576631
4.50798 -69.224 453.261 0.138241 -0.821211 -0.553627
4.69392 -69.1614 453.204 0.0772557 -0.850794 -0.519789
4.86477 -69.0989 453.125 0.0840064 -0.836316 -0.541773
5.0373 -69.0363 453.047 0.116792 -0.82139 -0.558282
5.24483 -68.9735 453.024 0.0839082 -0.83548 -0.543077
5.41223 -68.9109 452.94 0.0451625 -0.846871 -0.529877
5.57358 -68.8485 452.844 0.0862228 -0.823046 -0.561392
5.75002 -68.7859 452.773 0.104767 -0.821815 -0.56004
5.94445 -68.7231 452.729 0.0486643 -0.841022 -0.538807
6.10747 -68.6606 452.637 0.0409925 -0.826897 -0.560857
6.28577 -68.598 452.569 0.107388 -0.801306 -0.588537
6.49022 -68.535 452.54 0.123203 -0.810912 -0.572051
6.66938 -68.4724 452.473 0.0992796 -0.830885 -0.547515
6.85883 -68.4096 452.42 0.0788615 -0.835392 -0.543968
7.0287 -68.347 452.34 0.0442917 -0.845068 -0.532821
7.19216 -68.2845 452.247 0.0735835 -0.82823 -0.555536
7.38952 -68.2216 452.207 0.0914914 -0.828323 -0.552729
7.55953 -68.159 452.127 0.112648 -0.802433 -0.586013
7.76343 -68.096 452.096 0.141638 -0.780551 -0.608834
7.96436 -68.033 452.061 0.0718751 -0.840326 -0.537295
8.1255 -67.9699 451.964 0.0395901 -0.850058 -0.525199
8.30384 -67.9084 451.901 0.0721219 -0.821231 -0.56602
8.49031 -67.8449 451.84 0.081975 -0.820291 -0.566041
8.65678 -67.7824 451.752 0.0797724 -0.828923 -0.553645
8.83232 -67.7197 451.678 0.0551053 -0.83534 -0.546964
8.99711 -67.6571 451.588 0.0464577 -0.8341 -0.549654
9.19333 -67.5941 451.546 0.106909 -0.784957 -0.610257
9.35508 -67.5316 451.451 0.120535 -0.789902 -0.601271
9.55303 -67.4686 451.411 0.079189 -0.840491 -0.536008
9.71872 -67.4056 451.318 0.0759342 -0.846099 -0.52759
9.9105 -67.3435 451.277 0.0867191 -0.841913 -0.5326
10.0731 -67.2805 451.179 0.0819031 -0.845364 -0.527875
10.2655 -67.2175 451.13 0.0931746 -0.835612 -0.541361
10.4388 -67.1548 451.053 0.10994 -0.817427 -0.565443
10.6234 -67.092 450.992 0.0748928 -0.839156 -0.53871
10.7829 -67.0294 450.894 0.0332207 -0.864783 -0.501046
10.9421 -66.9671 450.797 0.0715892 -0.848122 -0.524943
11.1543 -66.9035 450.776 0.0996699 -0.834037 -0.54263
11.3382 -66.8406 450.714 0.107476 -0.833396 -0.542125
11.5093 -66.7779 450.633 0.0881944 -0.845503 -0.526637
11.6798 -66.7152 450.551 0.076317 -0.846367 -0.527105
11.8535 -66.6525 450.473 0.0984152 -0.832656 -0.544976
12.0585 -66.5891 450.441 0.0796732 -0.827328 -0.556039
12.2326 -66.5264 450.368 0.0851107 -0.808392 -0.582459
12.4343 -66.4631 450.33 0.0633176 -0.820078 -0.568737
12.5957 -66.4005 450.234 0.0438169 -0.828197 -0.558722
12.7736 -66.3377 450.163 0.0768867 -0.816295 -0.572496
12.9621 -66.2746 450.107 0.0956974 -0.810213 -0.57827
13.1346 -66.2118 450.028 0.0904122 -0.814574 -0.57297
13.3291 -66.1486 449.981 0.059331 -0.832304 -0.551135
13.5086 -66.0857 449.912 0.0494146 -0.831179 -0.553804
13.6824 -66.0229 449.834 0.0988741 -0.777177 -0.621466
13.8957 -65.9592 449.815 0.191119 -0.686296 -0.701763
14.1508 -65.8877 449.866 0.231679 -0.583039 -0.778711
14.4322 -65.829 449.94 0.292675 -0.41711 -0.860442
14.6622 -65.7569 449.955 0.354354 -0.379183 -0.854783
14.9987 -65.6985 450.107 0.315577 -0.369659 -0.873936
15.2567 -65.6328 450.154 0.186028 -0.322909 -0.927967
-4.7879 -72.4728 457.872 -0.988462 -0.088262 -0.123099
-4.74094 -72.41 457.592 -0.984203 -0.0457283 -0.171035
-4.69905 -72.3472 457.304 -0.970887 -0.0336915 -0.237156
-4.64444 -72.2845 457.037 -0.941934 -0.130297 -0.309488
-4.57585 -72.2194 456.794 -0.880541 -0.260847 -0.395735
-4.51239 -72.1593 456.54 -0.777414 -0.411604 -0.475615
-4.41867 -72.0968 456.338 -0.695132 -0.506037 -0.510605
-4.31268 -72.0273 456.16 -0.626972 -0.549578 -0.55215
-4.20217 -71.9613 455.987 -0.52224 -0.600493 -0.605536
-4.11077 -71.9042 455.778 -0.349195 -0.611285 -0.710207
-3.9734 -71.8475 455.643 -0.143484 -0.645884 -0.749831
-3.8152 -71.7854 455.545 0.00200606 -0.730669 -0.682729
-3.63165 -71.7232 455.488 0.10909 -0.771788 -0.626453
-3.44701 -71.6611 455.434 0.0982075 -0.825827 -0.555306
-3.28794 -71.5988 455.338 0.102295 -0.843167 -0.52783
-3.08648 -71.5366 455.31 0.170926 -0.810863 -0.55972
-2.88054 -71.4744 455.289 0.142565 -0.826459 -0.544648
-2.70195 -71.4121 455.225 0.0919369 -0.852045 -0.515331
-2.53366 -71.3499 455.143 0.148135 -0.82311 -0.548221
-2.32134 -71.2875 455.132 0.164207 -0.817011 -0.552747
-2.14767 -71.2254 455.06 0.0942025 -0.85751 -0.505769
-1.9834 -71.1631 454.971 0.0987223 -0.851357 -0.515214
-1.78298 -71.1007 454.941 0.159283 -0.820889 -0.548425
-1.56407 -71.0384 454.941 0.147959 -0.823325 -0.547945
-1.38691 -70.9761 454.873 0.081298 -0.852936 -0.515646
-1.22188 -70.9138 454.786 0.056623 -0.856071 -0.513748
-1.04242 -70.8514 454.722 0.114347 -0.81124 -0.573424
-0.848995 -70.7891 454.68 0.140876 -0.803865 -0.577889
-0.678209 -70.7268 454.602 0.108332 -0.832302 -0.543634
-0.483286 -70.6644 454.562 0.111391 -0.826981 -0.551085
-0.297003 -70.602 454.509 0.109037 -0.824184 -0.555726
-0.118045 -70.5396 454.443 0.121425 -0.817417 -0.563104
0.0594432 -70.4773 454.376 0.0933082 -0.836736 -0.539599
0.22217 -70.4149 454.285 0.0746331 -0.84923 -0.522723
0.420303 -70.3525 454.25 0.144745 -0.810161 -0.568056
0.651001 -70.2898 454.266 0.1376 -0.809289 -0.571067
0.810889 -70.2273 454.17 0.0630971 -0.850049 -0.522911
0.969349 -70.1653 454.073 0.0408783 -0.860428 -0.507929
1.1289 -70.1029 453.976 0.0996068 -0.826017 -0.554774
1.33797 -70.0403 453.957 0.12394 -0.818696 -0.560692
1.50713 -69.9779 453.877 0.0862354 -0.836916 -0.540495
1.68165 -69.9155 453.804 0.0808125 -0.832657 -0.547861
1.86881 -69.853 453.751 0.12909 -0.810672 -0.571092
2.09216 -69.7902 453.754 0.1224 -0.815734 -0.565328
2.26083 -69.7278 453.673 0.0566542 -0.833675 -0.549342
2.42238 -69.6655 453.579 0.0484341 -0.828376 -0.558075
2.58772 -69.6031 453.491 0.09935 -0.815302 -0.57045
2.75991 -69.5407 453.415 0.130032 -0.820958 -0.555986
2.96827 -69.478 453.394 0.100404 -0.842945 -0.528547
3.15787 -69.4154 453.345 0.0900013 -0.83902 -0.536605
3.33433 -69.3529 453.274 0.0699418 -0.845847 -0.52882
3.49372 -69.2904 453.177 0.0575086 -0.850136 -0.523413
3.65701 -69.2282 453.087 0.0777222 -0.843967 -0.530734
3.84452 -69.1656 453.033 0.0811264 -0.831 -0.550325
4.01688 -69.1031 452.956 0.0955436 -0.813061 -0.574286
4.19008 -69.0407 452.88 0.13217 -0.804784 -0.578665
4.40661 -68.9779 452.872 0.0958315 -0.820446 -0.563635
4.56704 -68.9153 452.776 0.0667364 -0.82656 -0.558879
4.76748 -68.8526 452.743 0.114923 -0.805383 -0.581507
4.94972 -68.79 452.681 0.101409 -0.826047 -0.554403
5.12797 -68.7273 452.611 0.0666419 -0.849828 -0.52283
5.30283 -68.6649 452.541 0.0690124 -0.838006 -0.54128
5.48663 -68.6022 452.48 0.122626 -0.806303 -0.578652
5.7026 -68.5393 452.469 0.0948976 -0.822183 -0.561257
5.86213 -68.4768 452.372 0.0326745 -0.844593 -0.534411
6.02031 -68.4148 452.276 0.0651022 -0.828596 -0.556048
6.18163 -68.352 452.178 0.101759 -0.818502 -0.56542
6.38206 -68.289 452.142 0.109909 -0.817078 -0.565954
6.56345 -68.2267 452.082 0.0977592 -0.828923 -0.550753
6.7522 -68.1638 452.027 0.0615553 -0.849002 -0.524793
6.91149 -68.1014 451.93 0.0559635 -0.845177 -0.531549
7.07171 -68.0389 451.834 0.126027 -0.807722 -0.575936
7.31655 -67.9754 451.866 0.131763 -0.805848 -0.577276
7.47788 -67.9126 451.771 0.0932384 -0.820327 -0.564244
7.6451 -67.8507 451.688 0.0823238 -0.830355 -0.55112
7.83469 -67.7874 451.632 0.0821294 -0.841412 -0.534117
8.01081 -67.7255 451.563 0.0774513 -0.840489 -0.536264
8.17159 -67.6626 451.466 0.0772824 -0.843701 -0.531222
8.36438 -67.5992 451.415 0.107299 -0.836231 -0.537777
8.562 -67.5371 451.383 0.0822019 -0.841866 -0.533389
8.72856 -67.4741 451.292 0.0972091 -0.824974 -0.556747
8.9398 -67.411 451.272 0.104021 -0.83067 -0.546962
9.10689 -67.3483 451.187 0.0662126 -0.84679 -0.52779
9.26865 -67.2859 451.091 0.0630635 -0.841899 -0.535938
9.43628 -67.2233 451.007 0.0670793 -0.842348 -0.534743
9.60198 -67.1608 450.917 0.080868 -0.840765 -0.535327
9.7881 -67.0979 450.86 0.0955132 -0.841348 -0.531988
9.97324 -67.0344 450.795 0.121694 -0.827058 -0.548785
10.177 -66.9726 450.775 0.108131 -0.831766 -0.544494
10.3539 -66.9092 450.697 0.0650036 -0.856922 -0.511331
10.5143 -66.8467 450.599 0.042542 -0.871977 -0.487695
10.6737 -66.7848 450.502 0.0746625 -0.849904 -0.521621
10.8363 -66.7218 450.408 0.0953744 -0.843986 -0.527817
10.9966 -66.6592 450.312 0.112829 -0.849257 -0.515782
11.212 -66.5959 450.297 0.108217 -0.845024 -0.523663
11.3861 -66.5332 450.221 0.0829003 -0.841989 -0.533088
11.5774 -66.4701 450.17 0.129256 -0.800794 -0.584827
11.7948 -66.4065 450.159 0.117894 -0.807464 -0.578017
11.9677 -66.3438 450.08 0.0960601 -0.823078 -0.559745
12.1565 -66.2808 450.026 0.0775497 -0.829815 -0.552623
12.3227 -66.2182 449.937 0.0493841 -0.847212 -0.528955
12.4929 -66.1555 449.854 0.0786502 -0.832278 -0.548751
12.6752 -66.092 449.784 0.0980904 -0.819767 -0.564234
12.8724 -66.03 449.753 0.0899528 -0.821819 -0.562603
13.0397 -65.9667 449.661 0.0787846 -0.829504 -0.552916
13.2204 -65.9038 449.593 0.113882 -0.805189 -0.58198
13.4565 -65.8397 449.609 0.153358 -0.743622 -0.650775
13.6747 -65.7756 449.597 0.264886 -0.536954 -0.800947
13.9582 -65.6876 449.71 0.323598 -0.415713 -0.84998
14.2464 -65.6449 449.774 0.282962 -0.475653 -0.832879
14.5222 -65.5765 449.851 0.378043 -0.234889 -0.895495
-4.80611 -72.2874 457.962 -0.991565 -0.0341727 -0.125028
-4.76228 -72.2246 457.676 -0.986779 -0.0361018 -0.158
-4.72101 -72.1619 457.387 -0.983268 -0.0714226 -0.16758
-4.68284 -72.0992 457.093 -0.976171 -0.0853286 -0.199521
-4.64273 -72.0366 456.802 -0.962592 -0.117868 -0.243976
-4.58095 -71.973 456.548 -0.924457 -0.151019 -0.350105
-4.49157 -71.9104 456.338 -0.866254 -0.232968 -0.441962
-4.42408 -71.8493 456.092 -0.788442 -0.3774 -0.485724
-4.33516 -71.7869 455.882 -0.677289 -0.47848 -0.55887
-4.20437 -71.7145 455.747 -0.596343 -0.504445 -0.624427
-4.09663 -71.645 455.572 -0.52242 -0.548933 -0.652495
-3.99994 -71.5985 455.365 -0.363668 -0.634447 -0.682072
-3.8834 -71.5382 455.199 -0.162491 -0.685178 -0.710019
-3.73189 -71.4761 455.091 -0.0630925 -0.760838 -0.645867
-3.57369 -71.4139 454.994 0.037144 -0.794889 -0.605617
-3.39313 -71.3516 454.932 0.153321 -0.77681 -0.610786
-3.17822 -71.2897 454.928 0.135762 -0.819225 -0.557171
-3.01524 -71.2274 454.837 0.0958851 -0.852672 -0.513573
-2.82513 -71.1651 454.791 0.137316 -0.823721 -0.550117
-2.6339 -71.1029 454.747 0.146074 -0.819949 -0.553486
-2.43799 -71.0406 454.71 0.103817 -0.848183 -0.519429
-2.2608 -70.9785 454.643 0.0875117 -0.843422 -0.530077
-2.10115 -70.9162 454.548 0.163308 -0.802255 -0.57421
-1.87833 -70.8538 454.554 0.161902 -0.822712 -0.544916
-1.70908 -70.7916 454.474 0.111528 -0.848567 -0.517199
-1.50157 -70.7292 454.455 0.10837 -0.839865 -0.531868
-1.33013 -70.667 454.379 0.110539 -0.836765 -0.536288
-1.14623 -70.6047 454.322 0.114745 -0.825562 -0.552523
-0.952269 -70.5422 454.28 0.115043 -0.822297 -0.557309
-0.768326 -70.4801 454.225 0.124218 -0.823869 -0.553
-0.582417 -70.4176 454.171 0.118356 -0.833774 -0.539271
-0.394193 -70.3553 454.12 0.117462 -0.836123 -0.535817
-0.202149 -70.2929 454.076 0.0829691 -0.842638 -0.53205
-0.0348218 -70.2306 453.993 0.0762464 -0.836745 -0.542258
0.136298 -70.1683 453.915 0.155652 -0.799194 -0.58057
0.335753 -70.1058 453.882 0.136837 -0.827099 -0.545144
0.508031 -70.0435 453.807 0.0712129 -0.859919 -0.505439
0.689721 -69.9811 453.746 0.0613227 -0.850704 -0.522055
0.864746 -69.9187 453.674 0.0837973 -0.831659 -0.548928
1.0331 -69.8565 453.592 0.122992 -0.812753 -0.569478
1.24622 -69.7938 453.581 0.10719 -0.830164 -0.547118
1.42215 -69.7314 453.51 0.0783741 -0.841235 -0.534958
1.58345 -69.6691 453.417 0.125842 -0.813344 -0.56801
1.77498 -69.6066 453.371 0.161674 -0.798673 -0.57964
1.99827 -69.5439 453.375 0.0968087 -0.840214 -0.533543
2.1601 -69.4815 453.282 0.0443113 -0.861521 -0.505785
2.32171 -69.4193 453.189 0.0415005 -0.845945 -0.531653
2.48685 -69.3569 453.102 0.0913132 -0.808261 -0.5817
2.67745 -69.2944 453.054 0.107058 -0.805343 -0.583062
2.84156 -69.2321 452.964 0.0887505 -0.825933 -0.556738
3.03347 -69.1695 452.918 0.0672478 -0.838099 -0.541357
3.19854 -69.1071 452.831 0.0390544 -0.846686 -0.530658
3.372 -69.0447 452.756 0.0999805 -0.818755 -0.565371
3.5856 -68.9819 452.744 0.105139 -0.813725 -0.571661
3.7585 -68.9194 452.668 0.0698841 -0.831227 -0.551523
3.94203 -68.8569 452.609 0.1419 -0.799869 -0.583159
4.15838 -68.794 452.6 0.119777 -0.81356 -0.569011
4.32466 -68.7316 452.514 0.0617247 -0.834575 -0.547425
4.49062 -68.6692 452.426 0.0731188 -0.816546 -0.57263
4.65877 -68.6068 452.344 0.0671626 -0.821093 -0.566829
4.83926 -68.5442 452.279 0.0858099 -0.824517 -0.559293
5.02756 -68.4817 452.227 0.0815146 -0.834105 -0.54555
5.18965 -68.4191 452.134 0.124151 -0.813641 -0.567956
5.39374 -68.3564 452.106 0.124022 -0.826914 -0.548481
5.56996 -68.2938 452.035 0.0623206 -0.863956 -0.499696
5.73785 -68.2314 451.951 0.0607371 -0.853053 -0.518278
5.92517 -68.1687 451.896 0.0967854 -0.824468 -0.557571
6.11169 -68.106 451.841 0.0957683 -0.824771 -0.557298
6.27358 -68.0437 451.747 0.0935753 -0.836018 -0.540664
6.46129 -67.9809 451.694 0.0793229 -0.84081 -0.535487
6.63035 -67.9185 451.611 0.059242 -0.841282 -0.53734
6.82653 -67.8556 451.57 0.11881 -0.803981 -0.582665
6.99339 -67.7932 451.484 0.151781 -0.804307 -0.574502
7.22236 -67.7298 451.492 0.102546 -0.847449 -0.520878
7.38184 -67.6674 451.396 0.0664397 -0.857206 -0.510671
7.54037 -67.6054 451.3 0.0941639 -0.840334 -0.533827
7.73593 -67.5423 451.254 0.0617642 -0.838802 -0.540922
7.89519 -67.4799 451.157 0.0318176 -0.834654 -0.549855
8.05448 -67.4175 451.06 0.113489 -0.808792 -0.57704
8.26398 -67.3545 451.037 0.113058 -0.834799 -0.538821
8.42902 -67.2918 450.949 0.0926765 -0.856402 -0.507923
8.59286 -67.2289 450.853 0.12758 -0.845927 -0.517813
8.7936 -67.167 450.827 0.108027 -0.860775 -0.49739
8.97404 -67.1037 450.755 0.075851 -0.861106 -0.502736
9.14701 -67.0412 450.681 0.0568055 -0.851861 -0.520678
9.31352 -66.9786 450.592 0.0546582 -0.848117 -0.526982
9.4755 -66.9154 450.495 0.0801215 -0.823466 -0.561681
9.66438 -66.8539 450.45 0.11291 -0.801904 -0.586687
9.84866 -66.7906 450.385 0.0960516 -0.83603 -0.540211
10.0084 -66.728 450.287 0.0593159 -0.87184 -0.486186
10.1682 -66.6656 450.19 0.0684557 -0.863492 -0.499694
10.3621 -66.6028 450.144 0.0598659 -0.853453 -0.51772
10.5224 -66.5404 450.047 0.0333116 -0.850876 -0.52431
10.6946 -66.4778 449.968 0.10338 -0.801685 -0.588739
10.9062 -66.4144 449.949 0.135386 -0.795499 -0.590637
11.0996 -66.3513 449.902 0.124978 -0.821158 -0.556849
11.3082 -66.2881 449.876 0.136374 -0.811832 -0.567742
11.4749 -66.2253 449.791 0.118538 -0.82535 -0.552038
11.6777 -66.1616 449.752 0.113286 -0.831525 -0.543812
11.8601 -66.1001 449.696 0.0817586 -0.84854 -0.522776
12.0216 -66.0369 449.598 0.0709727 -0.861284 -0.503143
12.2033 -65.974 449.532 0.0992648 -0.843944 -0.527167
12.3957 -65.9109 449.483 0.106886 -0.821049 -0.560762
12.5707 -65.8481 449.408 0.0814857 -0.820286 -0.56612
12.7556 -65.7851 449.348 0.0737774 -0.79957 -0.596024
12.9622 -65.7216 449.32 0.156073 -0.662921 -0.732241
13.2081 -65.6562 449.351 0.29381 -0.490669 -0.820317
13.5358 -65.5748 449.521 0.326031 -0.452749 -0.829893
13.7603 -65.5187 449.509 0.303264 -0.434549 -0.848056
14.064 -65.4569 449.617 0.377304 -0.234999 -0.895777
14.4389 -65.3931 449.834 0.423794 0.0360098 -0.905043
-4.82147 -72.1018 458.056 -0.99345 -0.0225454 -0.112021
-4.78938 -72.0391 457.751 -0.991409 -0.0171851 -0.129667
-4.75622 -71.9765 457.448 -0.989033 -0.0352165 -0.143434
-4.70872 -71.9139 457.169 -0.986934 -0.032819 -0.157748
-4.66043 -71.8514 456.892 -0.982952 -0.0253838 -0.182101
-4.61311 -71.789 456.613 -0.969436 -0.010564 -0.245115
-4.55879 -71.7266 456.346 -0.954673 -0.0672559 -0.28996
-4.49253 -71.6631 456.1 -0.927076 -0.130955 -0.351256
-4.404 -71.6008 455.889 -0.856971 -0.146899 -0.493985
-4.31669 -71.5373 455.677 -0.760213 -0.310839 -0.570487
-4.2173 -71.4775 455.483 -0.705735 -0.470407 -0.52977
-4.11076 -71.414 455.303 -0.643895 -0.501016 -0.578258
-3.98535 -71.3459 455.157 -0.544776 -0.530556 -0.649407
-3.88793 -71.2873 454.959 -0.448259 -0.609717 -0.653689
-3.78206 -71.2265 454.776 -0.279553 -0.634443 -0.720647
-3.63113 -71.1664 454.666 -0.0842661 -0.625237 -0.775873
-3.47273 -71.105 454.569 0.00829478 -0.742256 -0.670065
-3.29944 -71.0429 454.496 0.0773908 -0.788815 -0.60974
-3.09311 -70.9807 454.477 0.110213 -0.791028 -0.601771
-2.9236 -70.9185 454.398 0.11232 -0.813066 -0.571234
-2.73447 -70.8563 454.351 0.134968 -0.821753 -0.55363
-2.53623 -70.7941 454.318 0.0969453 -0.846525 -0.523447
-2.36534 -70.7319 454.241 0.10353 -0.829687 -0.548545
-2.19212 -70.6697 454.168 0.153153 -0.805957 -0.57182
-1.96871 -70.6073 454.175 0.137187 -0.825842 -0.546959
-1.80817 -70.5451 454.081 0.116102 -0.838789 -0.531933
-1.61712 -70.4829 454.036 0.137759 -0.826269 -0.546171
-1.40235 -70.4205 454.029 0.127773 -0.827097 -0.547343
-1.24252 -70.3581 453.934 0.106338 -0.840575 -0.531155
-1.06035 -70.2961 453.876 0.110041 -0.840058 -0.531219
-0.888272 -70.2338 453.8 0.117305 -0.841533 -0.527315
-0.702827 -70.1714 453.746 0.149534 -0.82454 -0.545686
-0.492876 -70.109 453.73 0.111917 -0.83458 -0.539399
-0.33085 -70.0467 453.639 0.0735092 -0.849215 -0.522906
-0.146573 -69.9844 453.582 0.112653 -0.831863 -0.543427
0.0343411 -69.9221 453.521 0.13037 -0.823284 -0.552456
0.239683 -69.8596 453.497 0.103587 -0.832002 -0.545015
0.406659 -69.7973 453.414 0.083378 -0.837669 -0.539776
0.587864 -69.735 453.352 0.0777381 -0.830223 -0.551984
0.770159 -69.6726 453.292 0.0865148 -0.812399 -0.576648
0.934073 -69.6104 453.203 0.107004 -0.815245 -0.569144
1.12445 -69.5479 453.156 0.0921819 -0.839516 -0.535459
1.30822 -69.4855 453.098 0.107698 -0.816671 -0.566965
1.51514 -69.423 453.077 0.133473 -0.792807 -0.594678
1.67549 -69.3606 452.982 0.100975 -0.833027 -0.543939
1.85477 -69.2983 452.917 0.0949152 -0.84302 -0.529442
2.06364 -69.2356 452.899 0.079801 -0.833013 -0.547467
2.23499 -69.1733 452.821 0.0815042 -0.818538 -0.568641
2.42781 -69.1107 452.777 0.0824625 -0.824169 -0.560308
2.59752 -69.0484 452.697 0.0780026 -0.821855 -0.564332
2.788 -68.9858 452.648 0.0700273 -0.824298 -0.561809
2.94681 -68.9236 452.552 0.0304574 -0.843642 -0.536041
3.10525 -68.8615 452.456 0.0984878 -0.806178 -0.583419
3.30465 -68.7989 452.42 0.10913 -0.817498 -0.565497
3.46541 -68.7363 452.326 0.0650311 -0.849443 -0.523658
3.62819 -68.6742 452.234 0.145302 -0.812367 -0.564755
3.84992 -68.6112 452.234 0.149627 -0.816031 -0.558306
4.03189 -68.5487 452.173 0.10972 -0.838054 -0.534441
4.24923 -68.4857 452.166 0.0849661 -0.834773 -0.543999
4.40872 -68.4233 452.07 0.0349114 -0.837102 -0.545932
4.56785 -68.3612 451.973 0.06068 -0.829354 -0.555419
4.73829 -68.2986 451.891 0.0766823 -0.835683 -0.543832
4.92057 -68.2364 451.833 0.0888521 -0.833221 -0.545754
5.08747 -68.1739 451.746 0.092501 -0.826908 -0.554677
5.26878 -68.1111 451.681 0.0839269 -0.835304 -0.543345
5.45299 -68.0489 451.627 0.0890725 -0.836141 -0.541233
5.62857 -67.986 451.55 0.101452 -0.828257 -0.551088
5.81213 -67.9238 451.495 0.0690114 -0.839367 -0.539167
5.97379 -67.8613 451.399 0.0887239 -0.821215 -0.563679
6.19147 -67.7982 451.392 0.0931387 -0.816565 -0.56969
6.35207 -67.7359 451.296 0.0679606 -0.823581 -0.563112
6.53446 -67.6733 451.235 0.0680606 -0.827726 -0.55699
6.69475 -67.6105 451.137 0.10029 -0.82464 -0.556697
6.87377 -67.5486 451.074 0.118916 -0.831213 -0.543088
7.05344 -67.4858 451.006 0.077508 -0.852505 -0.516941
7.24474 -67.423 450.957 0.132449 -0.804494 -0.579005
7.48158 -67.3595 450.977 0.10985 -0.820158 -0.561492
7.64059 -67.2971 450.88 0.0181746 -0.867987 -0.496254
7.78359 -67.2351 450.758 0.0501414 -0.850601 -0.523415
7.94163 -67.1729 450.659 0.0720583 -0.846686 -0.527191
8.10054 -67.1105 450.561 0.0600096 -0.859103 -0.508273
8.28326 -67.0479 450.498 0.0944465 -0.837485 -0.538237
8.4554 -66.9854 450.42 0.142335 -0.81806 -0.557243
8.68321 -66.9218 450.427 0.126812 -0.83548 -0.534689
8.85783 -66.8592 450.352 0.0747789 -0.84976 -0.521839
9.03448 -66.7966 450.281 0.0882824 -0.832201 -0.547401
9.25263 -66.7332 450.272 0.0917148 -0.822579 -0.561207
9.41242 -66.6705 450.175 0.0497871 -0.840492 -0.539532
9.55826 -66.6089 450.057 0.0290541 -0.855791 -0.516506
9.71724 -66.5464 449.96 0.0505394 -0.848571 -0.526662
9.91083 -66.4836 449.913 0.0944353 -0.827822 -0.552986
10.0974 -66.4204 449.852 0.0998605 -0.833977 -0.542688
10.285 -66.3582 449.805 0.0766503 -0.840765 -0.535947
10.4665 -66.2952 449.736 0.0718299 -0.813701 -0.576829
10.6261 -66.2327 449.639 0.075137 -0.813097 -0.577259
10.7856 -66.1704 449.543 0.125912 -0.807557 -0.576192
11.003 -66.1067 449.528 0.126796 -0.816813 -0.562795
11.1797 -66.0443 449.461 0.107304 -0.827672 -0.550858
11.3789 -65.9811 449.419 0.109992 -0.832216 -0.543431
11.5384 -65.9186 449.322 0.0673647 -0.866517 -0.494581
11.6985 -65.8561 449.226 0.0743194 -0.849684 -0.522028
11.8899 -65.7933 449.175 0.133653 -0.792288 -0.595328
12.12 -65.7293 449.182 0.127778 -0.780376 -0.612116
12.3187 -65.666 449.143 0.103604 -0.737746 -0.667081
