4.99635 -36.978 467.106 -0.0773414 0.616264 -0.783732
5.35188 -36.8456 467.225 0.0167098 0.609747 -0.79242
5.72486 -36.709 467.363 0.0377816 0.593692 -0.803805
6.01538 -36.5921 467.407 0.0162676 0.588344 -0.808447
6.38658 -36.4558 467.542 0.0574187 0.60171 -0.796648
6.74482 -36.3226 467.662 0.140837 0.594039 -0.792012
7.19475 -36.1673 467.886 0.188194 0.571061 -0.799045
7.64092 -36.0128 468.104 0.226187 0.528733 -0.818096
8.13728 -35.8462 468.378 0.261616 0.553944 -0.790381
8.72175 -35.6584 468.751 0.25835 0.615152 -0.744878
-7.60285 -44.1594 479.102 -0.977852 -0.209205 0.00619365
-7.61367 -44.1122 478.792 -0.984072 -0.176166 0.023813
-7.61892 -44.0638 478.489 -0.994223 -0.107324 -0.00115082
-7.62315 -44.0152 478.188 -0.997734 -0.0667366 -0.0085245
-7.61664 -43.9642 477.901 -0.998472 -0.0207395 -0.0512232
-7.59627 -43.9102 477.63 -0.995614 -0.0106463 -0.0929531
-7.55905 -43.8525 477.381 -0.996748 -0.0544929 -0.0593657
-7.56874 -43.8053 477.074 -0.997578 -0.00308032 -0.0694924
-7.53418 -43.7482 476.822 -0.992832 0.0440084 -0.11112
-7.50227 -43.6917 476.566 -0.993947 0.0257764 -0.106792
-7.47065 -43.6354 476.31 -0.995689 0.0085829 -0.0923565
-7.45194 -43.582 476.039 -0.992302 0.0186631 -0.122428
-7.41356 -43.5242 475.792 -0.976024 0.0668604 -0.207141
-7.3458 -43.4597 475.581 -0.977412 0.0350424 -0.208418
-7.30341 -43.4012 475.339 -0.986394 -0.00462386 -0.164333
-7.26494 -43.3433 475.092 -0.98529 -0.00309391 -0.170863
-7.22578 -43.284 474.848 -0.967978 0.0718662 -0.240527
-7.15911 -43.2214 474.635 -0.963599 0.0617246 -0.260127
-7.08992 -43.1568 474.426 -0.970061 0.0509615 -0.237454
-7.0433 -43.0973 474.19 -0.952862 0.108955 -0.283164
-6.94396 -43.0259 474.018 -0.951902 0.127295 -0.278709
-6.89475 -42.9693 473.783 -0.955494 0.16121 -0.247066
-6.83004 -42.9024 473.572 -0.913495 0.213628 -0.346252
-6.73239 -42.8314 473.398 -0.922525 0.138474 -0.36024
-6.64099 -42.7618 473.216 -0.943518 0.135205 -0.302477
-6.57499 -42.6981 473.005 -0.93338 0.166514 -0.317923
-6.49419 -42.631 472.811 -0.922759 0.154727 -0.352951
-6.4027 -42.5615 472.63 -0.917658 0.161928 -0.362881
-6.32575 -42.4959 472.431 -0.92805 0.137563 -0.34612
-6.25557 -42.4307 472.225 -0.88927 0.142129 -0.43474
-6.1389 -42.3555 472.074 -0.86529 0.118675 -0.487021
-6.03127 -42.2823 471.913 -0.912508 0.0942407 -0.398054
-5.9627 -42.2182 471.705 -0.879837 0.16218 -0.446749
-5.84023 -42.1416 471.561 -0.877696 0.163102 -0.450608
-5.76476 -42.0759 471.362 -0.87744 0.163163 -0.451083
-5.6556 -42.0024 471.203 -0.827285 0.175382 -0.533705
-5.5271 -41.9246 471.066 -0.827459 0.198595 -0.525234
-5.39699 -41.8462 470.932 -0.842452 0.242269 -0.481228
-5.29819 -41.7752 470.76 -0.859933 0.257294 -0.440812
-5.18766 -41.7015 470.603 -0.800051 0.320226 -0.507319
-5.05501 -41.6227 470.472 -0.776215 0.31942 -0.543563
-4.93224 -41.5462 470.329 -0.792969 0.29389 -0.533693
-4.81626 -41.4712 470.178 -0.788214 0.281719 -0.547132
-4.69226 -41.3944 470.036 -0.798008 0.270285 -0.538637
-4.56572 -41.317 469.898 -0.782643 0.302546 -0.544
-4.438 -41.2393 469.761 -0.751032 0.34707 -0.561687
-4.30247 -41.1598 469.633 -0.725464 0.312204 -0.613377
-4.16647 -41.0802 469.505 -0.714831 0.243436 -0.655558
-4.0277 -41 469.382 -0.733348 0.224491 -0.64172
-3.87859 -40.9174 469.269 -0.753943 0.269365 -0.599177
-3.74235 -40.8376 469.142 -0.77196 0.32562 -0.545939
-3.62447 -40.7624 468.994 -0.760401 0.360058 -0.540508
-3.48853 -40.6828 468.867 -0.71689 0.40399 -0.568208
-3.33152 -40.5984 468.763 -0.704356 0.43195 -0.563296
-3.18534 -40.5165 468.649 -0.65466 0.472448 -0.590096
-3.01541 -40.429 468.561 -0.602914 0.510258 -0.613295
-2.86051 -40.345 468.455 -0.64645 0.467303 -0.603101
-2.7168 -40.2636 468.337 -0.611484 0.451697 -0.649659
-2.53839 -40.1741 468.259 -0.581249 0.470735 -0.663745
-2.37372 -40.0878 468.165 -0.602321 0.450283 -0.659131
-2.20021 -39.9994 468.081 -0.603265 0.420712 -0.677549
-2.0269 -39.9111 467.997 -0.611551 0.405108 -0.679627
-1.87607 -39.8281 467.887 -0.590366 0.413619 -0.6931
-1.68797 -39.7363 467.82 -0.566539 0.484652 -0.666443
-1.53009 -39.6515 467.717 -0.554884 0.529349 -0.64179
-1.36524 -39.5651 467.623 -0.498523 0.48394 -0.71922
-1.15358 -39.4677 467.583 -0.490014 0.437775 -0.753816
-0.970691 -39.3771 467.51 -0.490006 0.440036 -0.752504
-0.776022 -39.2837 467.45 -0.428748 0.426565 -0.796378
-0.598667 -39.1943 467.37 -0.454644 0.437218 -0.775976
-0.403172 -39.1004 467.311 -0.45782 0.464099 -0.758296
-0.215197 -39.008 467.244 -0.420525 0.454868 -0.785018
0.00839006 -38.9084 467.216 -0.418669 0.454186 -0.786404
0.212974 -38.8126 467.167 -0.399871 0.487143 -0.776399
0.408714 -38.7188 467.107 -0.391767 0.484213 -0.78234
0.626225 -38.6198 467.073 -0.386551 0.446151 -0.807173
0.82116 -38.5262 467.012 -0.338805 0.485466 -0.805937
1.07822 -38.4178 467.023 -0.316017 0.528682 -0.7878
1.29179 -38.3215 466.982 -0.304078 0.525511 -0.794591
1.52964 -38.2157 466.972 -0.286621 0.52514 -0.801296
1.76137 -38.1134 466.953 -0.276634 0.536474 -0.797289
2.0069 -38.0058 466.952 -0.26965 0.534524 -0.800983
2.23598 -37.9058 466.927 -0.252364 0.527718 -0.811065
2.4809 -37.8001 466.923 -0.236814 0.513344 -0.824862
2.73462 -37.6923 466.928 -0.171491 0.522215 -0.835394
3.03827 -37.5727 466.99 -0.133261 0.552645 -0.822694
3.28921 -37.4696 466.987 -0.174161 0.537115 -0.825333
3.52106 -37.3606 466.975 -0.135109 0.495363 -0.858115
3.81224 -37.2458 467.019 -0.0799012 0.514686 -0.853647
4.11846 -37.1253 467.083 -0.057593 0.552156 -0.831749
4.4108 -37.0081 467.131 -0.0109575 0.523124 -0.852186
4.73586 -36.883 467.216 -0.0221515 0.493374 -0.869535
5.06124 -36.7577 467.301 -0.0447909 0.563163 -0.825131
5.35385 -36.6403 467.348 0.0134166 0.593064 -0.805043
5.69135 -36.512 467.446 0.0633897 0.537402 -0.840941
6.08342 -36.3706 467.605 0.0649688 0.535721 -0.841892
6.42574 -36.2411 467.707 0.0780892 0.579709 -0.811073
6.83067 -36.0965 467.88 0.103938 0.635292 -0.765246
7.24921 -35.9485 468.068 0.119351 0.640821 -0.758356
7.62612 -35.8105 468.208 0.222763 0.568326 -0.792074
8.19989 -35.625 468.57 0.273984 0.588978 -0.760288
8.76486 -35.4415 468.921 0.273572 0.599312 -0.752319
-7.64184 -43.9646 479.183 -0.996535 -0.0831777 -0.000528541
-7.64757 -43.9164 478.879 -0.989732 -0.142693 -0.00828251
-7.64366 -43.866 478.588 -0.991605 -0.125919 -0.0294078
-7.62873 -43.8132 478.31 -0.9928 -0.115534 -0.0316308
-7.63217 -43.7645 478.01 -0.996833 -0.0624591 -0.0492198
-7.6128 -43.7108 477.738 -0.99726 -0.0076977 -0.0735778
-7.61133 -43.6612 477.445 -0.994158 -0.0542228 -0.0933254
-7.55158 -43.5984 477.223 -0.992783 -0.0679464 -0.0988176
-7.54483 -43.5477 476.936 -0.994025 -0.00260196 -0.109125
-7.50444 -43.4893 476.691 -0.994238 -0.00681342 -0.10698
-7.49769 -43.4387 476.405 -0.994469 -0.0405869 -0.0968757
-7.46027 -43.3811 476.156 -0.991527 -0.0151553 -0.129015
-7.4257 -43.3242 475.904 -0.981446 0.0439884 -0.186624
-7.3762 -43.2639 475.671 -0.980017 0.0339541 -0.195993
-7.34022 -43.2068 475.421 -0.986837 -0.000194636 -0.161721
-7.29678 -43.148 475.181 -0.980693 0.0155442 -0.194935
-7.22736 -43.0823 474.972 -0.972098 0.0435212 -0.230503
-7.1783 -43.0233 474.738 -0.963203 0.0859783 -0.254653
-7.11136 -42.9593 474.527 -0.963379 0.074916 -0.257467
-7.04303 -42.8945 474.317 -0.947276 0.102578 -0.303555
-6.96687 -42.8287 474.117 -0.936536 0.108759 -0.333275
-6.87863 -42.7598 473.931 -0.960872 0.0920611 -0.261246
-6.82324 -42.695 473.708 -0.941703 0.170874 -0.289824
-6.74448 -42.6318 473.509 -0.907972 0.21984 -0.356732
-6.65597 -42.5629 473.324 -0.936108 0.158515 -0.313965
-6.59137 -42.4996 473.111 -0.944849 0.104923 -0.310245
-6.50774 -42.4319 472.92 -0.922593 0.120931 -0.366332
-6.42664 -42.3648 472.726 -0.922707 0.0975949 -0.372945
-6.34021 -42.2964 472.539 -0.942379 0.102799 -0.318362
-6.27389 -42.2322 472.329 -0.905484 0.237607 -0.351627
-6.16989 -42.1604 472.162 -0.855268 0.262972 -0.4465
-6.06995 -42.0891 471.992 -0.897515 0.116878 -0.425215
-5.97194 -42.0182 471.819 -0.880632 0.177704 -0.439214
-5.86248 -41.9446 471.66 -0.877444 0.219027 -0.426754
-5.76811 -41.8746 471.483 -0.890599 0.228712 -0.393095
-5.66486 -41.8025 471.316 -0.813836 0.31193 -0.490276
-5.53231 -41.7236 471.184 -0.789445 0.270081 -0.551211
-5.4246 -41.6505 471.023 -0.819867 0.213385 -0.531304
-5.29371 -41.5721 470.89 -0.849324 0.190065 -0.492467
-5.19832 -41.5019 470.714 -0.814542 0.251029 -0.522978
-5.06359 -41.4227 470.586 -0.787718 0.262912 -0.557115
-4.9533 -41.3488 470.427 -0.80378 0.228902 -0.549128
-4.81827 -41.2695 470.299 -0.791814 0.272883 -0.546411
-4.69756 -41.1936 470.154 -0.780756 0.294935 -0.550848
-4.56167 -41.1139 470.026 -0.760626 0.29206 -0.579784
-4.42601 -41.0343 469.898 -0.792199 0.277782 -0.543376
-4.32898 -40.9638 469.725 -0.783411 0.284906 -0.552354
-4.19329 -40.8843 469.598 -0.728339 0.317206 -0.607373
-4.04952 -40.8029 469.479 -0.696046 0.338607 -0.63314
-3.89913 -40.72 469.368 -0.694999 0.318165 -0.644785
-3.75299 -40.638 469.253 -0.74525 0.286767 -0.601969
-3.61467 -40.5579 469.128 -0.741951 0.338119 -0.578952
-3.46395 -40.4749 469.018 -0.693822 0.405034 -0.595449
-3.32096 -40.3936 468.899 -0.685222 0.415593 -0.598124
-3.17365 -40.3114 468.785 -0.633211 0.460312 -0.622219
-2.99849 -40.2227 468.703 -0.633631 0.482022 -0.605117
-2.85869 -40.1422 468.58 -0.679774 0.443771 -0.58393
-2.69815 -40.0568 468.481 -0.603144 0.462073 -0.650158
-2.51683 -39.9666 468.407 -0.595082 0.457661 -0.660624
-2.371 -39.8847 468.291 -0.632597 0.41824 -0.651841
-2.2168 -39.8008 468.184 -0.61361 0.39162 -0.68565
-2.06758 -39.7182 468.073 -0.600633 0.33197 -0.727348
-1.8876 -39.6282 467.996 -0.503457 0.374341 -0.778717
-1.67811 -39.5333 467.951 -0.498667 0.425423 -0.755213
-1.49454 -39.4405 467.881 -0.626216 0.446375 -0.63922
-1.35645 -39.3604 467.756 -0.558473 0.511699 -0.652895
-1.16581 -39.2679 467.691 -0.496076 0.478533 -0.72451
-1.00029 -39.1813 467.598 -0.523946 0.434528 -0.732575
-0.819863 -39.0912 467.521 -0.420439 0.468246 -0.777159
-0.565398 -38.9836 467.53 -0.4351 0.487524 -0.756973
-0.392796 -38.8952 467.444 -0.483224 0.478761 -0.732995
-0.187327 -38.7992 467.397 -0.43135 0.49075 -0.757035
-6.43701e-005 -38.7074 467.328 -0.397527 0.500647 -0.768976
0.21802 -38.6083 467.294 -0.404051 0.482023 -0.77743
0.423921 -38.512 467.246 -0.434165 0.471024 -0.767878
0.603879 -38.4219 467.169 -0.3694 0.502717 -0.781549
0.869021 -38.3115 467.189 -0.309999 0.541784 -0.781262
1.06923 -38.213 467.138 -0.317618 0.518105 -0.794158
1.30609 -38.1162 467.118 -0.304408 0.515435 -0.801039
1.53686 -38.0107 467.101 -0.281714 0.543111 -0.790991
1.78181 -37.905 467.098 -0.278993 0.533569 -0.798415
2.00544 -37.8037 467.07 -0.275457 0.521463 -0.807589
2.25329 -37.6971 467.069 -0.26902 0.521057 -0.810017
2.48503 -37.5953 467.049 -0.241715 0.533334 -0.810635
2.73794 -37.4876 467.053 -0.143983 0.531983 -0.834424
3.01072 -37.3751 467.08 -0.116118 0.48536 -0.866569
3.2774 -37.2662 467.097 -0.19535 0.473115 -0.859069
3.53221 -37.1558 467.106 -0.134898 0.531344 -0.836347
3.84646 -37.0333 467.179 -0.0685602 0.565117 -0.822157
4.13506 -36.9169 467.223 -0.0986396 0.575314 -0.811963
4.41567 -36.8023 467.257 -0.0598093 0.565133 -0.822829
4.73147 -36.6793 467.332 0.00892247 0.551234 -0.834303
5.07219 -36.5502 467.434 -0.0173683 0.577548 -0.816172
5.40355 -36.4234 467.525 -0.0402747 0.600024 -0.798967
5.71782 -36.3005 467.597 0.029031 0.594193 -0.803799
6.06511 -36.1697 467.705 0.0718374 0.588374 -0.805392
6.45646 -36.0282 467.863 0.142631 0.561518 -0.815079
6.9246 -35.8682 468.107 0.132137 0.6053 -0.784953
7.28967 -35.7329 468.235 0.107918 0.59501 -0.79644
7.70443 -35.5856 468.418 0.239772 0.579924 -0.778587
8.33957 -35.385 468.849 0.269103 0.604914 -0.749442
8.82248 -35.221 469.107 0.246271 0.593872 -0.765942
-7.66134 -43.7654 479.287 -0.994759 -0.0950997 0.0375688
-7.67187 -43.7183 478.978 -0.997138 -0.0755818 -0.00184886
-7.67207 -43.6689 478.681 -0.996962 -0.0731416 -0.0267684
-7.67423 -43.62 478.383 -0.996145 -0.068855 -0.0543501
-7.63653 -43.5622 478.133 -0.997479 -0.0134958 -0.0696692
-7.61674 -43.5084 477.861 -0.999278 -0.0147473 -0.0350226
-7.62057 -43.4601 477.561 -0.99728 -0.0109873 -0.0728857
-7.60087 -43.4065 477.29 -0.990822 -0.0168063 -0.134121
-7.55332 -43.3465 477.053 -0.991113 -0.0599972 -0.118727
-7.53651 -43.2936 476.779 -0.990976 -0.087103 -0.101877
-7.50979 -43.2385 476.517 -0.991969 -0.0659578 -0.107919
-7.48048 -43.1828 476.259 -0.989312 0.00208405 -0.145803
-7.43442 -43.1234 476.021 -0.980917 -0.0299701 -0.192105
-7.38446 -43.0631 475.788 -0.979745 -0.0270127 -0.19842
-7.33427 -43.0027 475.555 -0.987576 0.0139162 -0.156527
-7.30517 -42.9472 475.297 -0.979944 0.0599295 -0.190048
-7.2513 -42.8832 475.071 -0.966489 0.0742097 -0.245747
-7.18093 -42.8214 474.861 -0.966069 0.0783283 -0.246122
-7.12332 -42.7594 474.639 -0.962894 0.0961928 -0.252156
-7.06442 -42.6955 474.418 -0.950336 0.0959085 -0.296081
-6.98394 -42.6301 474.222 -0.928199 0.124479 -0.350646
-6.9005 -42.5626 474.03 -0.943864 0.0953514 -0.316272
-6.83041 -42.4976 473.823 -0.941781 0.0922738 -0.323317
-6.73318 -42.4268 473.648 -0.924414 0.140609 -0.354526
-6.66332 -42.3622 473.441 -0.952166 0.102625 -0.287834
-6.60749 -42.3009 473.217 -0.948854 0.123815 -0.290422
-6.52613 -42.2337 473.023 -0.930064 0.171638 -0.32484
-6.45095 -42.168 472.823 -0.907961 0.20897 -0.363233
-6.33625 -42.0932 472.669 -0.89891 0.215405 -0.381526
-6.23231 -42.0209 472.503 -0.921231 0.184403 -0.342532
-6.17016 -41.9582 472.287 -0.908433 0.244277 -0.339233
-6.08561 -41.8904 472.098 -0.867744 0.314058 -0.385212
-5.96376 -41.814 471.953 -0.852179 0.312023 -0.420038
-5.86597 -41.7432 471.78 -0.86113 0.269045 -0.431358
-5.74743 -41.6675 471.632 -0.880308 0.236376 -0.41132
-5.66686 -41.6007 471.438 -0.856115 0.263491 -0.444566
-5.55627 -41.5269 471.28 -0.814388 0.290896 -0.502147
-5.43325 -41.4503 471.137 -0.820568 0.283165 -0.496474
-5.32753 -41.3778 470.974 -0.827818 0.238213 -0.507909
-5.19943 -41.2998 470.837 -0.819329 0.249413 -0.51623
-5.08928 -41.2264 470.679 -0.80476 0.289049 -0.518471
-4.96031 -41.1483 470.543 -0.778532 0.287391 -0.557937
-4.82459 -41.0687 470.415 -0.780096 0.282646 -0.558177
-4.70903 -40.9939 470.264 -0.79299 0.29357 -0.533838
-4.58596 -40.9174 470.122 -0.756528 0.335153 -0.56155
-4.45013 -40.8377 469.993 -0.791024 0.312982 -0.525664
-4.32134 -40.7598 469.857 -0.783682 0.336343 -0.522222
-4.17923 -40.6787 469.737 -0.726132 0.388769 -0.56709
-4.0434 -40.5993 469.61 -0.716522 0.389279 -0.578842
-3.90695 -40.5195 469.483 -0.701965 0.375288 -0.605314
-3.76089 -40.4375 469.367 -0.703322 0.346222 -0.620861
-3.6148 -40.3556 469.251 -0.700542 0.337949 -0.628515
-3.47109 -40.2741 469.132 -0.684393 0.350222 -0.639492
-3.31645 -40.1902 469.028 -0.657956 0.370432 -0.655647
-3.14757 -40.1029 468.938 -0.60323 0.430168 -0.671617
-2.97734 -40.0152 468.851 -0.652957 0.420769 -0.629763
-2.84064 -39.9353 468.724 -0.69513 0.382175 -0.608881
-2.69313 -39.8533 468.611 -0.605026 0.394177 -0.691786
-2.52567 -39.7661 468.519 -0.614669 0.375063 -0.693909
-2.37153 -39.6823 468.413 -0.667253 0.39569 -0.631033
-2.21644 -39.5982 468.307 -0.677125 0.402252 -0.616194
-2.07413 -39.517 468.187 -0.608934 0.431019 -0.665899
-1.88831 -39.4237 468.119 -0.46742 0.449985 -0.760942
-1.69565 -39.3327 468.055 -0.42682 0.450761 -0.783989
-1.48309 -39.235 468.016 -0.566618 0.394609 -0.723345
-1.33209 -39.1519 467.907 -0.609714 0.378543 -0.696386
-1.15911 -39.0635 467.821 -0.536064 0.467451 -0.70294
-0.969095 -38.971 467.756 -0.530926 0.510584 -0.67633
-0.776916 -38.8781 467.693 -0.413732 0.54243 -0.73116
-0.575503 -38.7829 467.64 -0.430197 0.485542 -0.761038
-0.400372 -38.694 467.558 -0.478081 0.449534 -0.754558
-0.192652 -38.5973 467.512 -0.423507 0.473079 -0.772553
0.0137534 -38.5009 467.465 -0.413057 0.480447 -0.773663
0.21885 -38.4048 467.417 -0.411866 0.492533 -0.766667
0.410567 -38.3119 467.353 -0.420438 0.501478 -0.756143
0.649343 -38.2078 467.343 -0.343881 0.536748 -0.770485
0.854726 -38.1132 467.292 -0.325462 0.505276 -0.799232
1.07748 -38.0111 467.265 -0.312919 0.491726 -0.81258
1.32017 -37.907 467.258 -0.280968 0.535217 -0.796618
1.55641 -37.8036 467.244 -0.291305 0.536332 -0.792142
1.77929 -37.7019 467.216 -0.287927 0.51731 -0.805908
2.02094 -37.5977 467.207 -0.273861 0.514029 -0.81288
2.25259 -37.4935 467.189 -0.262305 0.531084 -0.805696
2.50249 -37.3832 467.195 -0.25232 0.532384 -0.808024
2.74105 -37.2816 467.179 -0.201665 0.545759 -0.813313
3.00648 -37.1706 467.198 -0.158183 0.566769 -0.808549
3.29006 -37.0568 467.235 -0.18402 0.575265 -0.796998
3.54931 -36.9471 467.247 -0.132235 0.59772 -0.790724
3.85832 -36.826 467.314 -0.0718305 0.589322 -0.804699
4.15986 -36.7063 467.372 -0.0873298 0.533153 -0.8415
4.444 -36.5908 467.411 -0.0546764 0.533244 -0.844193
4.7616 -36.4672 467.487 0.0295379 0.554466 -0.831682
5.13259 -36.3307 467.624 0.0133134 0.559736 -0.828564
5.41371 -36.2158 467.658 -0.0230842 0.571516 -0.820266
5.76476 -36.084 467.771 0.0367531 0.580966 -0.813098
6.14351 -35.9454 467.915 0.0550905 0.592468 -0.803708
6.4695 -35.8195 467.999 0.158904 0.585092 -0.795247
6.98018 -35.649 468.291 0.150113 0.557655 -0.816386
7.26044 -35.534 468.323 0.177984 0.502885 -0.84583
7.81674 -35.3522 468.666 0.292064 0.531635 -0.795024
8.32507 -35.182 468.954 0.293958 0.549806 -0.781858
8.89146 -34.9975 469.306 0.240244 0.571486 -0.784657
-7.66755 -43.563 479.409 -0.993899 -0.10373 0.0374891
-7.68337 -43.5172 479.092 -0.999179 -0.0389354 0.0112257
-7.67795 -43.4667 478.803 -0.999911 -0.00982244 -0.00907113
-7.67232 -43.4161 478.513 -0.997267 0.0154893 -0.0722346
-7.63159 -43.3576 478.267 -0.995671 -0.0312632 -0.0875277
-7.64203 -43.3108 477.959 -0.995115 -0.0919568 -0.0359269
-7.62455 -43.2577 477.684 -0.994203 -0.0895247 -0.0595493
-7.60939 -43.2052 477.408 -0.993197 -0.0343486 -0.111265
-7.58219 -43.1499 477.146 -0.99265 -0.0605202 -0.104798
-7.57526 -43.0993 476.86 -0.991842 -0.0631694 -0.110717
-7.52224 -43.0383 476.63 -0.991129 -0.0101965 -0.132514
-7.49798 -42.9832 476.365 -0.994471 -0.00155297 -0.105001
-7.48801 -42.9327 476.083 -0.983678 0.0517188 -0.172342
-7.41394 -42.8669 475.879 -0.970793 0.0274397 -0.238344
-7.36052 -42.8059 475.65 -0.981885 -0.0266149 -0.1876
-7.31638 -42.747 475.41 -0.981504 -0.00241789 -0.191427
-7.25941 -42.6832 475.187 -0.965468 0.062646 -0.252877
-7.19532 -42.6218 474.971 -0.962765 0.083664 -0.257068
-7.1341 -42.5592 474.752 -0.968665 0.064353 -0.239887
-7.07609 -42.4978 474.529 -0.951048 0.0913901 -0.295221
-6.99128 -42.4292 474.339 -0.931036 0.0964215 -0.351959
-6.91735 -42.3636 474.136 -0.945335 0.0651439 -0.319527
-6.8515 -42.2997 473.924 -0.932553 0.100645 -0.346721
-6.76494 -42.2316 473.736 -0.924271 0.120424 -0.362243
-6.68389 -42.1645 473.542 -0.94677 0.102408 -0.305186
-6.59943 -42.0966 473.352 -0.94115 0.123401 -0.314658
-6.51852 -42.0295 473.158 -0.926131 0.158945 -0.34208
-6.42592 -41.9598 472.978 -0.909838 0.206957 -0.359672
-6.35384 -41.8948 472.773 -0.903057 0.189221 -0.385594
-6.2775 -41.8289 472.574 -0.89756 0.161342 -0.41031
-6.14401 -41.7498 472.443 -0.895096 0.212867 -0.391779
-6.04676 -41.6791 472.269 -0.88444 0.258834 -0.388293
-5.96183 -41.6112 472.081 -0.879809 0.257267 -0.399687
-5.87077 -41.5419 471.899 -0.870477 0.267014 -0.41349
-5.77037 -41.4705 471.729 -0.878316 0.213701 -0.42766
-5.66889 -41.3989 471.56 -0.861549 0.201877 -0.46581
-5.53921 -41.3206 471.425 -0.817082 0.277636 -0.505268
-5.43104 -41.2475 471.264 -0.847961 0.258588 -0.462704
-5.33081 -41.1762 471.094 -0.823694 0.289948 -0.487297
-5.20095 -41.0979 470.959 -0.795939 0.337112 -0.502829
-5.07773 -41.0212 470.817 -0.817859 0.314177 -0.482078
-4.97132 -40.9485 470.654 -0.781578 0.320718 -0.535047
-4.83577 -40.869 470.526 -0.764423 0.312956 -0.563663
-4.6997 -40.7893 470.398 -0.777876 0.316703 -0.542779
-4.56426 -40.7098 470.27 -0.756172 0.36875 -0.540581
-4.4286 -40.6302 470.142 -0.774108 0.356749 -0.52296
-4.31584 -40.5561 469.988 -0.767388 0.353859 -0.534696
-4.18011 -40.4766 469.86 -0.730907 0.376294 -0.569366
-4.04044 -40.3961 469.736 -0.737359 0.364366 -0.568805
-3.90438 -40.3164 469.609 -0.728443 0.369205 -0.577112
-3.76719 -40.2366 469.484 -0.713188 0.367075 -0.597175
-3.62735 -40.156 469.36 -0.69833 0.368831 -0.613432
-3.47445 -40.0724 469.252 -0.678803 0.381206 -0.627621
-3.32754 -39.9903 469.137 -0.61889 0.382826 -0.685871
-3.15295 -39.9016 469.055 -0.582271 0.374274 -0.72172
-2.99447 -39.8167 468.953 -0.665558 0.322771 -0.672943
-2.85459 -39.7362 468.831 -0.719121 0.303561 -0.625072
-2.71768 -39.6563 468.704 -0.621335 0.395229 -0.676562
-2.52464 -39.5632 468.643 -0.571549 0.410406 -0.710562
-2.35456 -39.4756 468.555 -0.650782 0.348714 -0.674449
-2.21506 -39.395 468.431 -0.673602 0.342238 -0.655083
-2.05103 -39.3089 468.336 -0.635126 0.378543 -0.673291
-1.90985 -39.2279 468.215 -0.484502 0.471293 -0.736981
-1.67124 -39.1241 468.206 -0.450351 0.481907 -0.751631
-1.52792 -39.0427 468.087 -0.566114 0.393928 -0.724111
-1.34829 -38.9527 468.009 -0.543068 0.41972 -0.727264
-1.145 -38.8572 467.959 -0.484143 0.478133 -0.7328
-0.950588 -38.7636 467.899 -0.515235 0.441778 -0.734415
-0.795745 -38.6795 467.793 -0.454937 0.429214 -0.780261
-0.570239 -38.5786 467.768 -0.443287 0.426344 -0.788497
-0.390145 -38.4884 467.691 -0.46401 0.438874 -0.76947
-0.183424 -38.3919 467.645 -0.418271 0.476003 -0.773609
0.00746343 -38.2992 467.58 -0.39898 0.48221 -0.779929
0.233503 -38.198 467.555 -0.394306 0.479142 -0.784185
0.442371 -38.1009 467.511 -0.393571 0.504785 -0.768306
0.640766 -38.0038 467.457 -0.38303 0.524263 -0.76055
0.850886 -37.9083 467.412 -0.347072 0.514001 -0.784439
1.09304 -37.8038 467.404 -0.272665 0.510727 -0.81536
1.32697 -37.6977 467.392 -0.269365 0.515047 -0.813738
1.56233 -37.5971 467.374 -0.302723 0.502608 -0.80978
1.78413 -37.4968 467.343 -0.290458 0.507409 -0.811277
2.02604 -37.3917 467.335 -0.263749 0.535964 -0.801984
2.27353 -37.2858 467.333 -0.265909 0.540569 -0.798171
2.50626 -37.1832 467.314 -0.240264 0.529398 -0.813641
2.76873 -37.0733 467.329 -0.184051 0.557351 -0.809621
3.05545 -36.9559 467.374 -0.166795 0.60642 -0.777454
3.3195 -36.8456 467.39 -0.168278 0.598835 -0.782994
3.60767 -36.7288 467.434 -0.136732 0.590808 -0.795141
3.87966 -36.6162 467.459 -0.130316 0.588066 -0.798245
4.13311 -36.508 467.463 -0.099046 0.555469 -0.825617
4.44893 -36.3848 467.537 -0.0426106 0.556927 -0.829468
4.76405 -36.2616 467.611 0.0241253 0.570171 -0.821172
5.11233 -36.1305 467.722 0.0430858 0.521807 -0.851975
5.45123 -36.0015 467.821 0.00963061 0.539332 -0.842038
5.78182 -35.8744 467.911 0.044276 0.58959 -0.806488
6.13803 -35.7411 468.03 0.0848295 0.560591 -0.823736
6.54347 -35.5959 468.204 0.159336 0.550446 -0.819525
6.93699 -35.4534 468.364 0.135364 0.520149 -0.84328
7.2842 -35.3221 468.471 0.195889 0.533721 -0.82266
7.82116 -35.1448 468.792 0.294955 0.54238 -0.786655
8.38719 -34.9603 469.145 0.302808 0.539617 -0.78557
8.95612 -34.7749 469.501 0.239056 0.561667 -0.792075
-7.6719 -43.3602 479.532 -0.996268 -0.0859737 0.0076414
-7.68742 -43.3144 479.216 -0.996529 -0.0829282 -0.00727309
-7.66902 -43.261 478.942 -0.996264 -0.0853858 -0.0129175
-7.69991 -43.2188 478.608 -0.9956 -0.0789955 -0.0504039
-7.67426 -43.1638 478.343 -0.991119 -0.108214 -0.0772878
-7.66699 -43.113 478.056 -0.991589 -0.124588 -0.0350515
-7.66534 -43.0636 477.763 -0.994238 -0.0747214 -0.0768562
-7.63072 -43.0067 477.509 -0.994691 -0.0389208 -0.0952672
-7.61408 -42.9539 477.235 -0.99614 0.00424284 -0.0876805
-7.57027 -42.895 476.993 -0.991774 0.0500457 -0.117809
-7.54174 -42.8396 476.733 -0.989104 0.0535836 -0.137119
-7.49729 -42.7806 476.493 -0.993542 0.013454 -0.112667
-7.45626 -42.723 476.248 -0.989453 0.083245 -0.118543
-7.4415 -42.6698 475.973 -0.97445 0.117035 -0.191705
-7.37344 -42.6059 475.761 -0.980995 0.036105 -0.190647
-7.34761 -42.5513 475.499 -0.977821 0.0489271 -0.20365
-7.27025 -42.4834 475.301 -0.961297 0.0652427 -0.267678
-7.21156 -42.4228 475.078 -0.964886 0.0585325 -0.256063
-7.14828 -42.36 474.861 -0.969553 0.0653195 -0.236008
-7.09776 -42.2985 474.63 -0.957736 0.0879383 -0.273878
-7.0253 -42.2333 474.425 -0.934955 0.0805851 -0.345492
-6.94169 -42.1665 474.233 -0.939275 0.0654125 -0.336874
-6.85948 -42.0992 474.04 -0.928079 0.165528 -0.333573
-6.76772 -42.0304 473.858 -0.918592 0.160215 -0.361274
-6.68343 -41.9617 473.668 -0.942062 0.0842847 -0.324678
-6.63248 -41.9016 473.438 -0.93534 0.105722 -0.337583
-6.53425 -41.8306 473.265 -0.912828 0.126935 -0.388115
-6.45277 -41.7635 473.071 -0.923354 0.0823538 -0.375015
-6.36479 -41.6948 472.886 -0.918114 0.0774344 -0.388678
-6.25922 -41.6222 472.721 -0.869231 0.219902 -0.44281
-6.16131 -41.5513 472.548 -0.873934 0.20906 -0.438785
-6.08251 -41.4849 472.352 -0.891318 0.123611 -0.436203
-5.96026 -41.4084 472.207 -0.881781 0.144373 -0.44902
-5.86202 -41.3374 472.034 -0.900926 0.185066 -0.392534
-5.78158 -41.2707 471.84 -0.893118 0.20099 -0.402421
-5.68297 -41.1997 471.668 -0.835041 0.225447 -0.501877
-5.56008 -41.1231 471.525 -0.813034 0.242756 -0.529193
-5.44515 -41.0483 471.372 -0.839919 0.237198 -0.488133
-5.32133 -40.9715 471.23 -0.800803 0.327385 -0.501532
-5.18819 -40.8925 471.099 -0.802943 0.31536 -0.505797
-5.08912 -40.8215 470.927 -0.834291 0.255757 -0.488413
-4.9648 -40.7446 470.786 -0.796949 0.301508 -0.523417
-4.83973 -40.6676 470.646 -0.75397 0.33851 -0.562974
-4.7035 -40.5878 470.518 -0.742568 0.333789 -0.580669
-4.56767 -40.5081 470.39 -0.756457 0.288055 -0.587195
-4.44521 -40.4317 470.247 -0.779122 0.231828 -0.58243
-4.30982 -40.3523 470.119 -0.765493 0.266408 -0.585703
-4.1734 -40.2724 469.991 -0.738118 0.318461 -0.594781
-4.03923 -40.1937 469.863 -0.737091 0.331481 -0.588912
-3.90106 -40.1131 469.736 -0.738006 0.339012 -0.583453
-3.7648 -40.0334 469.609 -0.718404 0.349126 -0.60167
-3.61368 -39.9503 469.499 -0.695124 0.359035 -0.622813
-3.47286 -39.8695 469.377 -0.702929 0.368738 -0.608213
-3.33528 -39.7894 469.251 -0.645573 0.415098 -0.641038
-3.16706 -39.7023 469.161 -0.605454 0.426562 -0.671915
-3.00789 -39.6171 469.06 -0.662384 0.366175 -0.653577
-2.85472 -39.5335 468.954 -0.67657 0.327482 -0.659552
-2.6878 -39.4466 468.861 -0.625094 0.387968 -0.677303
-2.54262 -39.3647 468.745 -0.604637 0.425353 -0.673416
-2.39031 -39.2812 468.636 -0.648096 0.362887 -0.66954
-2.22947 -39.1957 468.536 -0.656374 0.362616 -0.661576
-2.07817 -39.1125 468.428 -0.592833 0.407671 -0.694517
-1.86662 -39.0149 468.387 -0.473133 0.432118 -0.767736
-1.6978 -38.9275 468.297 -0.501214 0.438578 -0.745945
-1.50786 -38.835 468.232 -0.55293 0.433318 -0.711691
-1.31902 -38.7428 468.166 -0.505789 0.478209 -0.717979
-1.14712 -38.6546 468.079 -0.512562 0.456768 -0.727079
-0.981083 -38.5678 467.986 -0.539919 0.38729 -0.747325
-0.790629 -38.4751 467.921 -0.465551 0.4437 -0.765762
-0.592403 -38.3806 467.865 -0.435777 0.475908 -0.763944
-0.39839 -38.2871 467.804 -0.443319 0.477496 -0.758595
-0.186483 -38.1893 467.763 -0.423436 0.503108 -0.753382
0.0177338 -38.0933 467.714 -0.407325 0.49352 -0.768456
0.222004 -37.9991 467.662 -0.359907 0.469885 -0.806025
0.439519 -37.8981 467.629 -0.35965 0.469628 -0.806289
0.670166 -37.7957 467.61 -0.393104 0.487382 -0.779697
0.86497 -37.6994 467.552 -0.359422 0.495502 -0.790756
1.08482 -37.6058 467.512 -0.270068 0.515314 -0.813336
1.33618 -37.4951 467.52 -0.276141 0.510497 -0.814333
1.55293 -37.3925 467.488 -0.298782 0.50186 -0.811705
1.79855 -37.2886 467.482 -0.260169 0.508031 -0.821107
2.04618 -37.1828 467.48 -0.246713 0.508476 -0.824976
2.27835 -37.0799 467.461 -0.270404 0.509488 -0.816887
2.51446 -36.976 467.446 -0.216341 0.540259 -0.813214
2.79504 -36.8614 467.482 -0.128564 0.56275 -0.816568
3.08351 -36.7448 467.527 -0.155652 0.564938 -0.810319
3.33278 -36.6369 467.527 -0.16708 0.575823 -0.80032
3.61468 -36.5225 467.563 -0.112479 0.53663 -0.836288
3.89797 -36.4071 467.601 -0.141966 0.534748 -0.833001
4.18057 -36.2917 467.638 -0.115306 0.591026 -0.798369
4.48699 -36.1706 467.702 -0.0473667 0.596932 -0.800892
4.80863 -36.0458 467.783 -0.0399306 0.606877 -0.793792
5.10463 -35.9271 467.834 0.0290722 0.56997 -0.821151
5.48426 -35.7881 467.98 0.05342 0.549587 -0.833727
5.82275 -35.659 468.079 0.0362475 0.565405 -0.824017
6.17208 -35.5272 468.19 0.0547292 0.610409 -0.790194
6.5287 -35.3936 468.308 0.111578 0.591664 -0.798426
6.94933 -35.2444 468.499 0.145189 0.531135 -0.834755
7.35934 -35.0977 468.677 0.19208 0.576364 -0.794298
7.86076 -34.9287 468.958 0.28572 0.557054 -0.779779
8.42376 -34.7446 469.308 0.318803 0.527525 -0.787453
8.9474 -34.5699 469.612 0.211016 0.580428 -0.786496
-7.69021 -43.2096 479.936 -0.99792 -0.0625671 0.0155509
-7.70474 -43.1637 479.621 -0.995045 -0.0990372 0.00879866
-7.71584 -43.117 479.31 -0.991521 -0.129466 -0.0111994
-7.71939 -43.0687 479.009 -0.986401 -0.163473 -0.0170233
-7.71482 -43.0185 478.718 -0.995769 -0.0888473 -0.0234686
-7.70425 -42.967 478.435 -0.996637 -0.0452723 -0.0683098
-7.68171 -42.9129 478.166 -0.991258 -0.120173 -0.0544592
-7.67553 -42.8625 477.878 -0.996525 -0.00784338 -0.0829214
-7.63022 -42.8032 477.638 -0.992239 0.0542769 -0.111874
-7.5989 -42.7471 477.381 -0.994225 0.0223585 -0.104958
-7.57585 -42.693 477.114 -0.9926 0.00730404 -0.121207
-7.54478 -42.6349 476.858 -0.99133 -0.00935187 -0.131065
-7.51674 -42.5818 476.597 -0.98633 0.0402019 -0.1598
-7.46269 -42.5207 476.368 -0.992166 0.0212225 -0.123109
-7.44133 -42.4656 476.101 -0.987329 0.076371 -0.139098
-7.38922 -42.4084 475.868 -0.979203 0.0904437 -0.18161
-7.34002 -42.3465 475.635 -0.980681 0.0733102 -0.181357
-7.3008 -42.2888 475.39 -0.960189 0.126706 -0.248963
-7.21897 -42.2216 475.195 -0.960765 0.0865923 -0.2635
-7.16396 -42.1617 474.968 -0.969373 0.0701782 -0.235353
-7.09918 -42.0963 474.755 -0.967955 0.0947605 -0.232559
-7.05025 -42.0372 474.521 -0.937588 0.155438 -0.311075
-6.94628 -41.9652 474.353 -0.903529 0.191505 -0.383355
-6.84885 -41.8939 474.179 -0.936232 0.123699 -0.32889
-6.80719 -41.836 473.937 -0.937378 0.107129 -0.331431
-6.71417 -41.7653 473.758 -0.937651 0.0792732 -0.338417
-6.63312 -41.6991 473.563 -0.93771 0.105798 -0.330918
-6.55316 -41.6323 473.368 -0.92427 0.181005 -0.336097
-6.48108 -41.5674 473.163 -0.92791 0.153819 -0.339591
-6.3955 -41.4994 472.974 -0.874654 0.221752 -0.431053
-6.26829 -41.4217 472.836 -0.872737 0.229208 -0.431038
-6.19057 -41.3555 472.638 -0.908399 0.120241 -0.400441
-6.0856 -41.283 472.473 -0.884681 0.110356 -0.452946
-6.00071 -41.2152 472.284 -0.843288 0.132764 -0.520806
-5.86672 -41.1359 472.154 -0.894955 0.0953778 -0.435842
-5.80316 -41.0731 471.94 -0.907548 0.128758 -0.399721
-5.68519 -40.9977 471.79 -0.834653 0.238488 -0.496465
-5.57139 -40.9232 471.636 -0.802281 0.298102 -0.517185
-5.43625 -40.8436 471.507 -0.792727 0.283336 -0.539727
-5.31378 -40.7672 471.363 -0.810761 0.248183 -0.530163
-5.21509 -40.6962 471.191 -0.831826 0.233797 -0.503392
-5.08992 -40.6191 471.051 -0.820871 0.263187 -0.506856
-4.97085 -40.5435 470.903 -0.789115 0.31233 -0.528911
-4.83993 -40.4649 470.769 -0.763998 0.323968 -0.557988
-4.70844 -40.3863 470.636 -0.773771 0.304781 -0.555327
-4.59733 -40.3125 470.479 -0.788815 0.294509 -0.539476
-4.46679 -40.2342 470.345 -0.762333 0.302665 -0.57205
-4.33081 -40.1545 470.217 -0.737153 0.309124 -0.600873
-4.19148 -40.0741 470.093 -0.726549 0.315375 -0.610463
-4.0455 -39.9921 469.978 -0.728676 0.314354 -0.608452
-3.9093 -39.9123 469.85 -0.737694 0.309435 -0.600048
-3.77246 -39.8325 469.723 -0.719131 0.319757 -0.616932
-3.63391 -39.7523 469.599 -0.678473 0.327014 -0.657827
-3.4686 -39.6658 469.505 -0.68112 0.343046 -0.646835
-3.31748 -39.5825 469.395 -0.651119 0.414578 -0.635743
-3.15142 -39.4958 469.303 -0.642765 0.413056 -0.645165
-3.01477 -39.4159 469.176 -0.691209 0.340413 -0.637455
-2.87737 -39.336 469.05 -0.639887 0.342375 -0.687986
-2.7085 -39.2486 468.96 -0.587036 0.355008 -0.72757
-2.52279 -39.1571 468.891 -0.643262 0.34152 -0.685258
-2.38207 -39.0764 468.768 -0.641069 0.336587 -0.689739
-2.21004 -38.9881 468.682 -0.637973 0.375122 -0.672513
-2.06326 -38.9059 468.567 -0.613734 0.444374 -0.652582
-1.91764 -38.824 468.45 -0.462259 0.457058 -0.759878
-1.67051 -38.7179 468.451 -0.486443 0.432793 -0.758988
-1.52593 -38.6361 468.334 -0.519512 0.450621 -0.725981
-1.3202 -38.5399 468.287 -0.522477 0.440366 -0.730134
-1.16067 -38.4546 468.186 -0.573908 0.417204 -0.704678
-0.973394 -38.3627 468.117 -0.519415 0.475113 -0.710265
-0.78374 -38.2702 468.051 -0.455989 0.524533 -0.718985
-0.570785 -38.1721 468.012 -0.446789 0.536628 -0.715828
-0.374666 -38.078 467.953 -0.431256 0.531308 -0.729198
-0.16297 -37.9818 467.911 -0.434979 0.485909 -0.758081
0.00976097 -37.8899 467.828 -0.442039 0.470644 -0.763607
0.221704 -37.7938 467.785 -0.378046 0.525992 -0.761849
0.445229 -37.6931 467.758 -0.350375 0.526784 -0.774426
0.653235 -37.596 467.712 -0.375982 0.437083 -0.817065
0.855582 -37.5001 467.66 -0.34161 0.459417 -0.819902
1.1098 -37.3899 467.67 -0.286198 0.542317 -0.789926
1.32863 -37.2925 467.633 -0.2961 0.546448 -0.783402
1.57498 -37.1862 467.631 -0.303769 0.51808 -0.799573
1.78574 -37.0884 467.588 -0.262795 0.510323 -0.818846
2.03654 -36.9786 467.593 -0.23926 0.500548 -0.831989
2.27936 -36.8754 467.584 -0.239885 0.508793 -0.826792
2.54529 -36.7642 467.603 -0.201931 0.55747 -0.805265
2.79703 -36.6564 467.606 -0.1273 0.565751 -0.814691
3.0993 -36.5371 467.665 -0.13561 0.550557 -0.823709
3.36349 -36.4255 467.683 -0.204786 0.552244 -0.808139
3.59907 -36.3213 467.667 -0.126103 0.562234 -0.817307
3.92327 -36.1961 467.751 -0.0974031 0.569808 -0.815985
4.19951 -36.0822 467.781 -0.106008 0.592961 -0.798222
4.50647 -35.9608 467.845 -0.0313391 0.588542 -0.807859
4.84836 -35.8309 467.949 -0.0568874 0.576869 -0.814853
5.11902 -35.7182 467.972 0.0102909 0.573396 -0.819214
5.50664 -35.5771 468.127 0.069494 0.542754 -0.837012
5.81211 -35.4559 468.188 0.094875 0.539433 -0.836667
6.27941 -35.2953 468.433 0.0596808 0.588526 -0.806273
6.55604 -35.1809 468.46 0.0614385 0.600218 -0.797473
6.97338 -35.0323 468.647 0.15032 0.588382 -0.794488
7.40691 -34.8797 468.852 0.182096 0.599341 -0.779507
7.87575 -34.7184 469.096 0.252613 0.574907 -0.778247
-7.69986 -43.0569 480.351 -0.988137 -0.149658 0.0344666
-7.71145 -43.0103 480.039 -0.988032 -0.151756 0.027609
-7.7195 -42.963 479.732 -0.98864 -0.147891 0.0268357
-7.74747 -42.9203 479.4 -0.9901 -0.139938 0.010952
-7.745 -42.8706 479.106 -0.995867 -0.0744742 -0.0519894
-7.70477 -42.8124 478.859 -0.996077 -0.0810735 -0.0354756
-7.73543 -42.7704 478.525 -0.993936 -0.105271 -0.0317606
-7.72177 -42.7184 478.246 -0.991672 -0.0575961 -0.115197
-7.65499 -42.6541 478.031 -0.99258 -0.0204678 -0.119855
-7.65282 -42.6048 477.738 -0.993191 -0.0382804 -0.110032
-7.62374 -42.5493 477.479 -0.991126 -0.0787961 -0.107058
-7.60978 -42.4973 477.2 -0.99294 -0.0350067 -0.113332
-7.56682 -42.4387 476.958 -0.986491 -0.0291748 -0.161197
-7.51376 -42.3799 476.726 -0.982626 -0.0421873 -0.180737
-7.47973 -42.3214 476.475 -0.984771 -0.0279513 -0.171594
-7.42566 -42.2603 476.246 -0.988754 -0.0104273 -0.149186
-7.40525 -42.2085 475.976 -0.982756 0.0600496 -0.174883
-7.34323 -42.1442 475.758 -0.97877 0.071411 -0.192118
-7.29363 -42.083 475.526 -0.970705 0.108931 -0.214162
-7.2384 -42.023 475.298 -0.959617 0.124618 -0.252203
-7.17174 -41.9591 475.086 -0.963623 0.0764802 -0.256089
-7.10759 -41.8934 474.872 -0.965397 0.0787115 -0.248622
-7.03982 -41.8319 474.66 -0.940066 0.148239 -0.307086
-6.95604 -41.7642 474.468 -0.916449 0.189966 -0.352185
-6.89548 -41.7014 474.249 -0.941786 0.112869 -0.316702
-6.79298 -41.6298 474.08 -0.946661 0.108922 -0.303263
-6.73834 -41.5689 473.854 -0.927618 0.159243 -0.337886
-6.63914 -41.4977 473.681 -0.911676 0.179777 -0.369496
-6.54487 -41.4276 473.503 -0.934401 0.163437 -0.316517
-6.47746 -41.3638 473.293 -0.922204 0.185404 -0.339361
-6.3674 -41.2901 473.133 -0.869651 0.255843 -0.422199
-6.27937 -41.2215 472.948 -0.9099 0.200191 -0.363326
-6.21709 -41.159 472.732 -0.922218 0.153714 -0.354805
-6.1248 -41.0894 472.551 -0.892908 0.185236 -0.410369
-6.02462 -41.0181 472.381 -0.842259 0.24642 -0.479455
-5.89861 -40.9407 472.241 -0.873851 0.225829 -0.430564
-5.81538 -40.8733 472.05 -0.884771 0.231235 -0.404611
-5.68895 -40.7959 471.911 -0.80685 0.326353 -0.492429
-5.56625 -40.7193 471.767 -0.816365 0.327529 -0.475681
-5.46787 -40.6485 471.594 -0.809267 0.296424 -0.507168
-5.34411 -40.5715 471.452 -0.808625 0.21633 -0.547108
-5.20996 -40.4925 471.322 -0.815789 0.212676 -0.537827
-5.09585 -40.4177 471.168 -0.800237 0.276773 -0.531995
-4.96509 -40.3394 471.034 -0.792977 0.28231 -0.539896
-4.85001 -40.2647 470.882 -0.77482 0.293033 -0.560166
-4.71402 -40.1849 470.754 -0.77413 0.301765 -0.556472
-4.57844 -40.1053 470.625 -0.795758 0.280873 -0.536544
-4.46244 -40.0304 470.474 -0.768947 0.287126 -0.571209
-4.32658 -39.9508 470.346 -0.736857 0.307431 -0.602103
-4.19027 -39.8709 470.219 -0.726077 0.309137 -0.614204
-4.05512 -39.7916 470.09 -0.727366 0.297282 -0.618517
-3.91763 -39.7116 469.964 -0.737553 0.306552 -0.601699
-3.78156 -39.6319 469.837 -0.732052 0.337555 -0.59174
-3.64038 -39.551 469.714 -0.666283 0.379143 -0.64212
-3.47621 -39.4647 469.62 -0.624528 0.393207 -0.674799
-3.31431 -39.3789 469.522 -0.653822 0.374226 -0.657626
-3.17481 -39.2984 469.399 -0.689967 0.35335 -0.631735
-3.0283 -39.2163 469.283 -0.711948 0.345052 -0.611612
-2.87872 -39.1334 469.171 -0.655835 0.414274 -0.631076
-2.71504 -39.0472 469.076 -0.590097 0.446424 -0.672675
-2.55913 -38.9628 468.971 -0.651773 0.364514 -0.665073
-2.42164 -38.8827 468.845 -0.609011 0.386681 -0.692519
-2.21756 -38.7869 468.796 -0.575752 0.41859 -0.702348
-2.05785 -38.7016 468.696 -0.651216 0.38858 -0.651861
-1.88767 -38.6137 468.608 -0.490499 0.493785 -0.718045
-1.69289 -38.52 468.548 -0.465803 0.484363 -0.740554
-1.5044 -38.4278 468.481 -0.522376 0.408415 -0.748545
-1.32217 -38.3371 468.407 -0.523689 0.41264 -0.745304
-1.14836 -38.2484 468.322 -0.528918 0.435388 -0.72848
-0.948196 -38.1533 468.269 -0.481453 0.496776 -0.722092
-0.759014 -38.0609 468.202 -0.444358 0.532542 -0.720379
-0.548441 -37.9633 468.16 -0.447962 0.493652 -0.745411
-0.376358 -37.8734 468.075 -0.462292 0.419842 -0.781037
-0.187823 -37.7826 468.006 -0.435279 0.423632 -0.794398
0.0277343 -37.6838 467.969 -0.395393 0.495026 -0.773701
0.261658 -37.5805 467.954 -0.385758 0.534459 -0.752027
0.445425 -37.4893 467.88 -0.440895 0.492669 -0.750259
0.629615 -37.3979 467.807 -0.371541 0.47876 -0.795454
0.886399 -37.2908 467.815 -0.279396 0.53364 -0.798227
1.11777 -37.1864 467.798 -0.283079 0.55082 -0.785152
1.36195 -37.0805 467.793 -0.330129 0.545519 -0.77034
1.55846 -36.9851 467.735 -0.329721 0.545549 -0.770494
1.81133 -36.878 467.739 -0.288972 0.539162 -0.791075
2.03708 -36.7748 467.715 -0.249491 0.548067 -0.798359
2.29966 -36.6661 467.728 -0.205956 0.554237 -0.806476
2.55699 -36.5542 467.741 -0.186231 0.537747 -0.822281
2.82378 -36.4454 467.758 -0.134909 0.547002 -0.826189
3.10801 -36.3296 467.798 -0.119749 0.52916 -0.84003
3.36863 -36.2197 467.81 -0.161431 0.475875 -0.864571
3.64823 -36.1048 467.844 -0.104541 0.536438 -0.83744
3.94396 -35.9861 467.896 -0.0630476 0.552693 -0.830997
4.2478 -35.8654 467.957 -0.0848077 0.550894 -0.830255
4.53203 -35.7494 467.996 -0.0331338 0.568344 -0.822124
4.85616 -35.6236 468.079 -0.0501611 0.565904 -0.822943
5.15115 -35.5049 468.13 -0.0384968 0.614504 -0.787974
5.49114 -35.3752 468.23 0.0214295 0.621402 -0.783199
5.86811 -35.2365 468.373 0.0957846 0.595513 -0.797615
6.25776 -35.0946 468.529 0.105307 0.529502 -0.841747
6.59752 -34.9647 468.629 0.103007 0.537862 -0.836716
7.0448 -34.8086 468.85 0.153607 0.605496 -0.780884
7.47381 -34.6568 469.049 0.185562 0.589143 -0.786434
7.94569 -34.4945 469.297 0.226036 0.580855 -0.781994
-7.7185 -42.8568 480.457 -0.991715 -0.121405 0.0419711
-7.74358 -42.8134 480.129 -0.989584 -0.14141 0.0269514
-7.75942 -42.768 479.812 -0.984814 -0.172099 0.0228588
-7.7688 -42.7211 479.503 -0.991262 -0.131549 -0.00970364
-7.74774 -42.6673 479.232 -0.995024 -0.0831266 -0.0549376
-7.76623 -42.6226 478.912 -0.989123 -0.143841 -0.0307637
-7.74948 -42.5698 478.636 -0.994777 -0.0962809 -0.0339053
-7.72909 -42.5163 478.365 -0.991834 0.0429555 -0.120085
-7.69647 -42.4599 478.109 -0.992446 -0.0428234 -0.114966
-7.68634 -42.4088 477.826 -0.991373 -0.093272 -0.0920858
-7.64715 -42.3511 477.578 -0.990658 -0.040529 -0.130208
-7.60348 -42.2923 477.336 -0.994801 -0.0286752 -0.0977164
-7.60612 -42.2443 477.038 -0.990913 0.0116057 -0.134005
-7.55978 -42.1828 476.801 -0.980545 -0.0335702 -0.193402
-7.51174 -42.1254 476.563 -0.979018 -0.0432857 -0.199124
-7.46416 -42.0658 476.327 -0.980619 -0.0159423 -0.195277
-7.40037 -42.0026 476.11 -0.982125 0.00841564 -0.188044
-7.36207 -41.9453 475.863 -0.974597 0.0698703 -0.212789
-7.29543 -41.8839 475.648 -0.973288 0.0590313 -0.221868
-7.24583 -41.8221 475.416 -0.971675 0.0531772 -0.230261
-7.19104 -41.7605 475.189 -0.962049 0.0826581 -0.260056
-7.12179 -41.6961 474.98 -0.956132 0.125294 -0.264789
-7.05491 -41.6334 474.767 -0.934953 0.162258 -0.315491
-6.95989 -41.5623 474.59 -0.93724 0.103874 -0.332855
-6.8879 -41.4971 474.384 -0.940654 0.105545 -0.322536
-6.81832 -41.4327 474.176 -0.937624 0.123168 -0.3251
-6.73463 -41.3651 473.984 -0.927151 0.15535 -0.340965
-6.64318 -41.2957 473.802 -0.905943 0.171296 -0.387201
-6.56396 -41.2292 473.606 -0.933046 0.107846 -0.343212
-6.48594 -41.1629 473.408 -0.915686 0.180997 -0.358831
-6.39404 -41.0934 473.227 -0.881128 0.18666 -0.434478
-6.28511 -41.02 473.066 -0.926179 0.0894695 -0.366316
-6.21435 -40.9555 472.86 -0.922612 0.155936 -0.352806
-6.10314 -40.8816 472.702 -0.882641 0.237905 -0.405395
-6.01277 -40.8125 472.52 -0.836692 0.277697 -0.472049
-5.87884 -40.7333 472.389 -0.862014 0.266659 -0.431074
-5.80225 -40.6675 472.19 -0.864378 0.266396 -0.426477
-5.67191 -40.5891 472.056 -0.800588 0.31612 -0.509046
-5.56308 -40.5158 471.895 -0.845356 0.286668 -0.450772
-5.45393 -40.4424 471.735 -0.861399 0.271092 -0.429536
-5.36526 -40.3738 471.551 -0.808759 0.289825 -0.511771
-5.23154 -40.2946 471.421 -0.778005 0.282132 -0.561347
-5.10292 -40.2167 471.284 -0.799822 0.289444 -0.52584
-4.98683 -40.1418 471.133 -0.793916 0.284515 -0.537353
-4.85373 -40.0627 471.001 -0.767122 0.273867 -0.580104
-4.71785 -39.983 470.873 -0.77907 0.275478 -0.563171
-4.61608 -39.9114 470.705 -0.804177 0.25899 -0.534999
-4.48461 -39.8328 470.572 -0.768567 0.314363 -0.557208
-4.34853 -39.7531 470.444 -0.741829 0.359551 -0.56605
-4.21236 -39.6733 470.316 -0.736722 0.329015 -0.590753
-4.07162 -39.5927 470.195 -0.714372 0.30623 -0.629203
-3.91898 -39.509 470.086 -0.713375 0.336052 -0.614952
-3.77647 -39.4279 469.966 -0.725202 0.36317 -0.584969
-3.63699 -39.3473 469.842 -0.672378 0.409078 -0.616897
-3.47613 -39.2618 469.743 -0.634035 0.425623 -0.645635
-3.3254 -39.1786 469.633 -0.659267 0.395193 -0.639679
-3.16168 -39.0924 469.537 -0.688858 0.386822 -0.613061
-3.02028 -39.0113 469.416 -0.672964 0.428434 -0.602962
-2.85209 -38.924 469.325 -0.651413 0.445724 -0.613997
-2.70889 -38.8426 469.206 -0.647337 0.404262 -0.646163
-2.54553 -38.7564 469.11 -0.651195 0.40466 -0.642025
-2.37915 -38.6695 469.017 -0.598953 0.486099 -0.636366
-2.2168 -38.5835 468.92 -0.582157 0.47351 -0.66097
-2.05975 -38.4988 468.816 -0.596643 0.406507 -0.691931
-1.88066 -38.4088 468.739 -0.4999 0.439706 -0.746162
-1.68244 -38.3143 468.683 -0.530606 0.465951 -0.708059
-1.54087 -38.2332 468.561 -0.52568 0.451353 -0.72107
-1.32806 -38.1351 468.522 -0.5029 0.448331 -0.738979
-1.1548 -38.0465 468.437 -0.477093 0.470353 -0.742395
-0.936586 -37.9487 468.403 -0.434105 0.453157 -0.778589
-0.749928 -37.8552 468.335 -0.478031 0.461772 -0.747164
-0.573362 -37.7657 468.253 -0.522787 0.459806 -0.717824
-0.403613 -37.6778 468.164 -0.477604 0.465476 -0.745135
-0.168991 -37.5744 468.149 -0.392084 0.525326 -0.755184
0.0375545 -37.4777 468.102 -0.362136 0.539691 -0.759994
0.255226 -37.3782 468.068 -0.407274 0.47506 -0.780029
0.44166 -37.2863 467.998 -0.460231 0.422643 -0.780743
0.658841 -37.187 467.962 -0.332709 0.512841 -0.79139
0.893292 -37.0834 467.947 -0.265493 0.553768 -0.789211
1.13728 -36.9797 467.94 -0.276188 0.53555 -0.798064
1.36768 -36.8764 467.92 -0.320487 0.519084 -0.792363
1.60201 -36.7733 467.903 -0.33684 0.523701 -0.782481
1.81147 -36.6737 467.861 -0.277792 0.527534 -0.802832
2.06938 -36.5643 467.871 -0.243415 0.542245 -0.804189
2.30969 -36.4618 467.858 -0.22586 0.551802 -0.802809
2.55558 -36.3511 467.86 -0.171601 0.522892 -0.834947
2.83458 -36.2381 467.892 -0.144419 0.524789 -0.838892
3.08755 -36.1298 467.896 -0.16491 0.516325 -0.840365
3.34466 -36.0191 467.906 -0.115572 0.507369 -0.853944
3.65248 -35.8987 467.971 -0.0938663 0.548719 -0.830721
3.92635 -35.785 467.998 -0.0603862 0.543902 -0.836973
4.25062 -35.6594 468.082 -0.0651646 0.551484 -0.831636
4.53635 -35.543 468.122 -0.0321243 0.560869 -0.827281
4.89531 -35.4086 468.245 0.0193686 0.533569 -0.845535
5.22812 -35.2806 468.338 0.0137726 0.551374 -0.834144
5.57995 -35.1478 468.453 0.0348995 0.575209 -0.817262
5.89366 -35.0243 468.523 0.0587448 0.56855 -0.820548
6.23605 -34.8937 468.626 0.0953692 0.557129 -0.824931
6.65145 -34.7453 468.811 0.150644 0.563053 -0.812575
7.08442 -34.5924 469.016 0.172261 0.565929 -0.806258
7.48247 -34.448 469.181 0.185974 0.563954 -0.804593
7.93429 -34.2904 469.405 0.218111 0.555231 -0.802587
-7.73909 -42.6571 480.561 -0.992366 -0.107423 0.0605763
-7.77502 -42.6163 480.219 -0.98983 -0.133834 0.048212
-7.78523 -42.5696 479.909 -0.991982 -0.125634 0.0136693
-7.79055 -42.5219 479.605 -0.997709 -0.065716 -0.0160754
-7.79086 -42.4731 479.308 -0.998725 -0.0481137 -0.0152901
-7.78464 -42.4228 479.018 -0.99871 -0.0273975 -0.0427605
-7.74622 -42.3651 478.769 -0.996844 0.00790518 -0.0789886
-7.73458 -42.3137 478.487 -0.99753 -0.00786154 -0.0698016
-7.72438 -42.2626 478.203 -0.997055 0.00853688 -0.0762187
-7.69291 -42.2066 477.946 -0.995359 0.0135569 -0.0952737
-7.66968 -42.1526 477.678 -0.989969 0.0220485 -0.139551
-7.62927 -42.0947 477.432 -0.99377 -0.016502 -0.110223
-7.59859 -42.039 477.175 -0.996635 -0.00281402 -0.0819145
-7.58529 -41.9874 476.896 -0.984962 0.0631199 -0.160831
-7.51945 -41.9246 476.681 -0.977923 0.0190707 -0.208093
-7.47792 -41.8656 476.437 -0.978031 0.0414768 -0.204292
-7.42665 -41.8053 476.205 -0.97493 0.0624563 -0.213569
-7.36413 -41.7424 475.987 -0.97723 0.0292446 -0.210157
-7.32531 -41.6851 475.74 -0.975259 0.0557868 -0.213908
-7.26608 -41.623 475.519 -0.969177 0.0550724 -0.24013
-7.19565 -41.556 475.312 -0.952008 0.0772621 -0.29616
-7.10957 -41.4901 475.121 -0.955297 0.108448 -0.275038
-7.05951 -41.4303 474.889 -0.954054 0.141644 -0.264041
-7.00026 -41.3673 474.668 -0.934422 0.143854 -0.325825
-6.91046 -41.299 474.483 -0.935634 0.119822 -0.332011
-6.82724 -41.2318 474.291 -0.929386 0.161757 -0.331776
-6.73924 -41.1631 474.105 -0.930308 0.16624 -0.326944
-6.68029 -41.1014 473.884 -0.919898 0.161129 -0.357527
-6.56826 -41.0271 473.727 -0.909763 0.112209 -0.399676
-6.47979 -40.9585 473.541 -0.930334 0.109675 -0.349927
-6.41428 -40.8952 473.328 -0.903717 0.205203 -0.375749
-6.3153 -40.8241 473.156 -0.898198 0.199502 -0.391714
-6.21969 -40.7538 472.979 -0.903179 0.185694 -0.387021
-6.12995 -40.6849 472.796 -0.883969 0.222586 -0.411162
-6.02779 -40.6132 472.627 -0.828852 0.285127 -0.48136
-5.89497 -40.5341 472.495 -0.862826 0.197672 -0.46525
-5.81679 -40.468 472.298 -0.866368 0.154204 -0.475002
-5.68595 -40.3895 472.164 -0.795029 0.217792 -0.566124
-5.56354 -40.313 472.02 -0.846991 0.160299 -0.506864
-5.46619 -40.2424 471.846 -0.879131 0.166885 -0.446406
-5.36072 -40.1699 471.681 -0.829862 0.261918 -0.492675
-5.2301 -40.0914 471.547 -0.760424 0.325932 -0.561716
-5.09556 -40.012 471.417 -0.806727 0.289475 -0.515166
-4.99254 -39.9403 471.251 -0.814186 0.29514 -0.499994
-4.87012 -39.8636 471.106 -0.76106 0.332127 -0.557206
-4.73443 -39.784 470.978 -0.778322 0.264696 -0.569343
-4.59841 -39.7043 470.85 -0.778278 0.257564 -0.572664
-4.45824 -39.6237 470.727 -0.742054 0.320264 -0.588886
-4.32219 -39.544 470.599 -0.77142 0.304808 -0.558573
-4.21359 -39.4708 470.439 -0.766033 0.305528 -0.565549
-4.07736 -39.391 470.311 -0.689276 0.339305 -0.640133
-3.91844 -39.3059 470.21 -0.68022 0.343578 -0.647499
-3.77636 -39.2248 470.09 -0.705668 0.357045 -0.612007
-3.6245 -39.1413 469.98 -0.673036 0.412128 -0.614144
