-10.032 -11.5103 495.453 -0.954382 0.108633 -0.278124
-9.95021 -11.4251 495.273 -0.949974 0.132088 -0.283023
-9.90508 -11.3556 495.06 -0.951091 0.106874 -0.289835
-9.85148 -11.2824 494.854 -0.925172 0.121133 -0.3597
-9.75112 -11.1894 494.692 -0.923588 0.0991847 -0.370333
-9.67445 -11.1064 494.508 -0.915569 0.111119 -0.386506
-9.57269 -11.0128 494.347 -0.930986 0.0939585 -0.352757
-9.50211 -10.9325 494.157 -0.928134 0.126671 -0.350032
-9.39911 -10.8384 493.998 -0.881328 0.22108 -0.417594
-9.30869 -10.7496 493.826 -0.89409 0.199789 -0.400858
-9.20279 -10.6543 493.669 -0.881487 0.226927 -0.414107
-9.09657 -10.5588 493.513 -0.867088 0.258821 -0.425641
-8.99048 -10.4634 493.356 -0.864058 0.261031 -0.430426
-8.87992 -10.366 493.203 -0.870418 0.260593 -0.417689
-8.78597 -10.2758 493.036 -0.836672 0.291745 -0.463534
-8.66732 -10.1749 492.89 -0.815727 0.241518 -0.525604
-8.55128 -10.0753 492.743 -0.83808 0.145269 -0.52585
-8.42921 -9.97303 492.601 -0.851856 0.198749 -0.484603
-8.32121 -9.87676 492.446 -0.85308 0.274732 -0.443595
-8.19928 -9.77457 492.304 -0.831321 0.324054 -0.451547
-8.0884 -9.67709 492.151 -0.789441 0.344521 -0.508024
-7.94055 -9.56379 492.033 -0.757435 0.332223 -0.562068
-7.80993 -9.45786 491.899 -0.795628 0.31518 -0.517337
-7.69414 -9.35827 491.751 -0.806036 0.328104 -0.492599
-7.55796 -9.24994 491.621 -0.739582 0.366834 -0.564314
-7.39593 -9.13054 491.516 -0.694807 0.402847 -0.595783
-7.25498 -9.02015 491.391 -0.744978 0.355393 -0.564539
-7.11007 -8.90806 491.269 -0.685609 0.359291 -0.633127
-6.90734 -8.77118 491.201 -0.662495 0.382445 -0.644078
-6.77669 -8.66516 491.066 -0.708949 0.341587 -0.617016
-6.61716 -8.54676 490.958 -0.672721 0.320609 -0.666826
-6.43611 -8.4193 490.869 -0.696118 0.340458 -0.632067
-6.30536 -8.31303 490.734 -0.656958 0.365458 -0.659429
-6.12019 -8.18358 490.649 -0.589072 0.349916 -0.728391
-5.92854 -8.05131 490.57 -0.625293 0.317551 -0.71286
-5.75532 -7.92695 490.473 -0.643175 0.333748 -0.689158
-5.59135 -7.80653 490.369 -0.590404 0.407528 -0.696666
-5.40018 -7.67442 490.288 -0.587218 0.397703 -0.704987
-5.20763 -7.54165 490.209 -0.57112 0.402293 -0.71553
-5.01249 -7.40773 490.133 -0.518558 0.436727 -0.735097
-4.78182 -7.25862 490.088 -0.510587 0.437058 -0.74046
-4.58829 -7.12519 490.01 -0.527504 0.40498 -0.746813
-4.39599 -6.99252 489.929 -0.531129 0.372865 -0.760837
-4.18289 -6.85093 489.868 -0.479955 0.435435 -0.761604
-3.93598 -6.69464 489.837 -0.456168 0.477225 -0.751111
-3.719 -6.55116 489.779 -0.475786 0.456642 -0.751735
-3.49501 -6.40449 489.728 -0.453676 0.457832 -0.764571
-3.25283 -6.25027 489.691 -0.382094 0.501018 -0.776522
-2.98316 -6.08399 489.68 -0.369611 0.476312 -0.797818
-2.73136 -5.92547 489.652 -0.367913 0.468525 -0.803196
-2.43875 -5.74919 489.661 -0.352141 0.522918 -0.776243
-2.19908 -5.59561 489.622 -0.292761 0.533172 -0.793737
-1.88291 -5.40905 489.652 -0.300026 0.506641 -0.808269
-1.63446 -5.2517 489.621 -0.309061 0.509214 -0.803232
-1.30681 -5.06007 489.66 -0.242751 0.537292 -0.807706
-0.978222 -4.86797 489.699 -0.219739 0.531234 -0.818233
-0.65078 -4.67631 489.738 -0.200964 0.528448 -0.824837
-0.323007 -4.48444 489.776 -0.180388 0.539533 -0.822413
0.0537167 -4.27131 489.858 -0.125572 0.552242 -0.824173
0.467488 -4.04207 489.972 -0.110965 0.557117 -0.822987
0.837267 -3.83179 490.047 -0.102604 0.560189 -0.821986
1.24854 -3.60347 490.158 -0.0482756 0.562712 -0.825242
1.73914 -3.34067 490.339 0.00736308 0.569927 -0.821662
-10.0476 -13.0239 504.376 -0.942652 -0.239652 0.232323
-10.135 -13.0091 504.031 -0.937191 -0.25236 0.240805
-10.2137 -12.9908 503.694 -0.951506 -0.205367 0.229043
-10.2779 -12.9664 503.371 -0.978638 -0.108416 0.174684
-10.3357 -12.9394 503.055 -0.969498 -0.151021 0.193043
-10.4241 -12.9253 502.71 -0.962697 -0.198649 0.183721
-10.4721 -12.8942 502.404 -0.978102 -0.163803 0.128393
-10.5264 -12.8659 502.092 -0.97129 -0.173144 0.163149
-10.5744 -12.8349 501.786 -0.985353 -0.11276 0.127923
-10.6089 -12.7983 501.493 -0.99772 -0.051207 0.0439657
-10.6288 -12.7556 501.214 -0.988441 -0.129304 0.0791541
-10.6672 -12.7207 500.918 -0.984658 -0.15373 0.0825607
-10.6826 -12.6762 500.644 -0.992782 -0.111615 0.0438941
-10.7042 -12.6344 500.365 -0.993651 -0.110052 0.0233764
-10.7017 -12.5823 500.108 -0.993743 -0.110412 -0.016832
-10.708 -12.5338 499.844 -0.990904 -0.133786 0.0145419
-10.7194 -12.488 499.574 -0.996208 -0.0869456 -0.00332484
-10.708 -12.4319 499.327 -0.997684 -0.0453451 -0.0507004
-10.7069 -12.381 499.069 -0.995907 -0.0594197 -0.0681054
-10.6795 -12.3187 498.837 -0.995635 -0.0636928 -0.0682212
-10.6715 -12.2644 498.587 -0.996683 -0.0365619 -0.0727088
-10.6505 -12.2049 498.349 -0.995518 -0.0196369 -0.092509
-10.6328 -12.1467 498.108 -0.994758 -0.0416501 -0.0933914
-10.608 -12.0859 497.874 -0.994366 -0.00214758 -0.105979
-10.5779 -12.0221 497.645 -0.989963 0.0341398 -0.137143
-10.5386 -11.9549 497.424 -0.988555 0.0374497 -0.14614
-10.5204 -11.8966 497.185 -0.989846 0.0357396 -0.137577
-10.4808 -11.8292 496.965 -0.980916 0.080599 -0.176937
-10.4241 -11.7546 496.761 -0.970764 0.103193 -0.216723
-10.3691 -11.6808 496.556 -0.954162 0.0875294 -0.286207
-10.2843 -11.5943 496.379 -0.961132 0.0347583 -0.273892
-10.2473 -11.5282 496.157 -0.969868 0.0417556 -0.240025
-10.1741 -11.4466 495.969 -0.954258 0.10538 -0.279797
-10.1293 -11.3772 495.755 -0.950216 0.0866059 -0.299315
-10.0435 -11.2903 495.579 -0.946397 0.0686775 -0.315619
-9.98974 -11.217 495.373 -0.956438 0.0386635 -0.289365
-9.9191 -11.1366 495.183 -0.958112 0.0681505 -0.278165
-9.83745 -11.0516 495.004 -0.935798 0.157463 -0.315418
-9.76833 -10.9718 494.812 -0.92485 0.157114 -0.346363
-9.68771 -10.8872 494.632 -0.915916 0.135107 -0.377947
-9.60506 -10.8017 494.453 -0.918876 0.122464 -0.37506
-9.52452 -10.7172 494.273 -0.906399 0.156711 -0.392278
-9.41974 -10.6223 494.114 -0.886238 0.195203 -0.420092
-9.32558 -10.5319 493.947 -0.884704 0.200233 -0.420957
-9.22114 -10.4372 493.788 -0.867996 0.215648 -0.447302
-9.11799 -10.343 493.629 -0.863931 0.179861 -0.470396
-9.01168 -10.2475 493.472 -0.853696 0.163805 -0.494339
-8.90203 -10.1505 493.319 -0.862234 0.150323 -0.483689
-8.79595 -10.055 493.162 -0.875474 0.122661 -0.467439
-8.71543 -9.97055 492.982 -0.855903 0.114554 -0.50429
-8.60894 -9.87491 492.825 -0.791305 0.167234 -0.588107
-8.4525 -9.75794 492.715 -0.781327 0.183869 -0.596423
-8.32459 -9.65316 492.578 -0.81631 0.188066 -0.546141
-8.20323 -9.55118 492.435 -0.83479 0.215652 -0.506576
-8.09519 -9.45488 492.28 -0.813814 0.259418 -0.520008
-7.97002 -9.35127 492.141 -0.747888 0.315164 -0.584239
-7.80186 -9.22922 492.041 -0.772956 0.287961 -0.565347
-7.67517 -9.12493 491.903 -0.805965 0.284585 -0.519069
-7.54987 -9.02124 491.764 -0.723213 0.350527 -0.595058
-7.36957 -8.89423 491.674 -0.712301 0.365966 -0.598913
-7.23517 -8.78633 491.544 -0.77029 0.341038 -0.538838
-7.1045 -8.6803 491.409 -0.676982 0.381405 -0.629465
-6.925 -8.55365 491.318 -0.679549 0.370375 -0.633273
-6.78541 -8.44344 491.193 -0.742208 0.309168 -0.594594
-6.63811 -8.33005 491.074 -0.646198 0.34703 -0.679704
-6.44532 -8.19775 490.994 -0.688484 0.335797 -0.64283
-6.31286 -8.09062 490.862 -0.695427 0.326437 -0.640172
-6.13351 -7.9636 490.771 -0.616216 0.380962 -0.689308
-5.97109 -7.84384 490.665 -0.618329 0.377061 -0.68956
-5.78267 -7.71289 490.583 -0.596012 0.371837 -0.711693
-5.57252 -7.57255 490.52 -0.599311 0.395165 -0.696183
-5.39775 -7.44742 490.425 -0.595868 0.420073 -0.684456
-5.20483 -7.31445 490.346 -0.565438 0.443379 -0.695482
-4.9952 -7.17426 490.282 -0.524236 0.444677 -0.72625
-4.79684 -7.0389 490.208 -0.528617 0.403855 -0.746636
-4.60601 -6.90675 490.127 -0.54877 0.369861 -0.749703
-4.40098 -6.76846 490.058 -0.501997 0.431086 -0.749776
-4.15883 -6.61403 490.024 -0.452573 0.469931 -0.757854
-3.9377 -6.46854 489.97 -0.461063 0.446734 -0.766714
-3.71885 -6.32454 489.912 -0.476854 0.446388 -0.757198
-3.49133 -6.17633 489.864 -0.423399 0.467017 -0.776292
-3.2284 -6.0129 489.847 -0.400773 0.475033 -0.783405
-3.0143 -5.87049 489.786 -0.377772 0.474147 -0.795281
-2.73366 -5.6993 489.784 -0.310737 0.475728 -0.822876
-2.45632 -5.52948 489.779 -0.320498 0.474823 -0.819649
-2.17683 -5.35869 489.776 -0.302969 0.502194 -0.809945
-1.87627 -5.17873 489.792 -0.297671 0.509761 -0.807178
-1.58995 -5.00488 489.794 -0.278522 0.500414 -0.819763
-1.28036 -4.8209 489.817 -0.238181 0.517541 -0.82184
-0.993626 -4.64677 489.819 -0.209726 0.509985 -0.834224
-0.643129 -4.44496 489.878 -0.174013 0.504355 -0.845781
-0.297227 -4.24507 489.933 -0.177639 0.552809 -0.814154
0.0648195 -4.03811 490.001 -0.120338 0.551615 -0.825372
0.452116 -3.82013 490.092 -0.0654081 0.499136 -0.864051
0.864529 -3.59118 490.205 -0.0757982 0.530969 -0.843994
1.28992 -3.35651 490.328 -0.0453442 0.572812 -0.818431
1.77115 -3.0975 490.501 -0.00246851 0.56645 -0.824092
-10.0605 -12.8024 504.505 -0.930626 -0.282122 0.233113
-10.1499 -12.7887 504.158 -0.950082 -0.222527 0.218692
-10.2236 -12.7683 503.825 -0.963196 -0.191421 0.18871
-10.2812 -12.7412 503.509 -0.961795 -0.200227 0.186706
-10.3738 -12.7289 503.159 -0.943496 -0.25135 0.215961
-10.4635 -12.7155 502.813 -0.95425 -0.242446 0.175004
-10.4985 -12.6791 502.519 -0.972455 -0.201935 0.11642
-10.5331 -12.6425 502.225 -0.971411 -0.197613 0.131563
-10.5871 -12.6142 501.914 -0.975626 -0.190316 0.109243
-10.6108 -12.5731 501.631 -0.982981 -0.169258 0.0714197
-10.643 -12.5356 501.341 -0.982212 -0.164231 0.0910348
-10.6853 -12.5025 501.041 -0.986812 -0.147188 0.0673653
-10.6906 -12.4538 500.776 -0.991912 -0.1164 0.0506218
-10.725 -12.4174 500.484 -0.991681 -0.122893 0.0382867
-10.7358 -12.3709 500.215 -0.991918 -0.126106 -0.0139736
-10.7319 -12.3185 499.96 -0.993516 -0.112988 -0.0126289
-10.7275 -12.2662 499.705 -0.998077 -0.0610252 -0.0108961
-10.733 -12.2173 499.442 -0.997736 -0.0585508 -0.0330931
-10.7188 -12.1607 499.197 -0.996368 -0.0565762 -0.0636397
-10.7112 -12.1067 498.946 -0.995714 -0.0378889 -0.0843623
-10.6815 -12.0434 498.716 -0.995205 -0.0536241 -0.0818033
-10.6731 -11.9891 498.466 -0.995905 -0.04503 -0.0783991
-10.6543 -11.9305 498.226 -0.992535 -0.0254615 -0.119275
-10.61 -11.8611 498.01 -0.991372 -0.0241757 -0.128832
-10.5955 -11.8041 497.766 -0.98953 0.00215778 -0.144309
-10.5469 -11.7332 497.554 -0.987683 0.015843 -0.155663
-10.5081 -11.6662 497.334 -0.986725 0.0356716 -0.158432
-10.4529 -11.5922 497.129 -0.981386 0.0657237 -0.180449
-10.4274 -11.5309 496.896 -0.982462 0.0545358 -0.178308
-10.3923 -11.4656 496.672 -0.966367 0.0790661 -0.244711
-10.3372 -11.3917 496.467 -0.954132 0.0477716 -0.29555
-10.2556 -11.3066 496.287 -0.959002 0.0442432 -0.279924
-10.2011 -11.233 496.081 -0.962446 0.0801492 -0.259372
-10.1327 -11.1535 495.889 -0.958427 0.0961744 -0.268642
-10.0796 -11.0806 495.682 -0.952026 0.0885155 -0.292937
-10.0046 -10.9984 495.496 -0.947122 0.0717533 -0.312749
-9.92705 -10.915 495.313 -0.937722 0.135854 -0.319721
-9.85592 -10.8344 495.123 -0.942487 0.131848 -0.307139
-9.78719 -10.7549 494.931 -0.938673 0.101048 -0.32967
-9.70839 -10.671 494.749 -0.919211 0.111898 -0.37753
-9.61643 -10.5816 494.579 -0.908398 0.122007 -0.39991
-9.51884 -10.4897 494.414 -0.897065 0.172247 -0.406947
-9.42696 -10.4004 494.244 -0.884389 0.206871 -0.418402
-9.32206 -10.3054 494.086 -0.884936 0.200242 -0.420465
-9.23082 -10.2162 493.915 -0.891577 0.193938 -0.409242
-9.14539 -10.1297 493.74 -0.880891 0.209121 -0.424617
-9.03928 -10.0342 493.583 -0.861819 0.212322 -0.460638
-8.93326 -9.93874 493.426 -0.873447 0.168932 -0.456675
-8.84668 -9.85164 493.251 -0.891477 0.135134 -0.432443
-8.74061 -9.75624 493.094 -0.864449 0.19081 -0.465101
-8.61128 -9.65079 492.958 -0.802833 0.297281 -0.516801
-8.49486 -9.55091 492.811 -0.777605 0.303733 -0.550525
-8.35756 -9.44208 492.683 -0.792513 0.252741 -0.555018
-8.22908 -9.33703 492.547 -0.813297 0.223173 -0.537347
-8.0989 -9.23124 492.412 -0.801035 0.243194 -0.546991
-7.9578 -9.12075 492.287 -0.756621 0.298131 -0.581929
-7.83208 -9.01686 492.148 -0.75427 0.282282 -0.592785
-7.69243 -8.90694 492.022 -0.789275 0.258663 -0.556901
-7.56454 -8.80211 491.886 -0.705038 0.31035 -0.637655
-7.38353 -8.6745 491.797 -0.691733 0.307734 -0.653303
-7.25228 -8.56819 491.663 -0.773159 0.278388 -0.569847
-7.10901 -8.4563 491.541 -0.680445 0.34627 -0.645826
-6.91543 -8.32361 491.463 -0.707155 0.362821 -0.606871
-6.80441 -8.22597 491.31 -0.75739 0.339207 -0.557941
-6.63716 -8.10385 491.21 -0.643689 0.373112 -0.668171
-6.4547 -7.97577 491.121 -0.695278 0.339748 -0.633372
-6.33053 -7.87246 490.98 -0.682852 0.355973 -0.637963
-6.11962 -7.73179 490.918 -0.626955 0.40727 -0.664123
-5.95679 -7.6118 490.813 -0.644704 0.418445 -0.639734
-5.76989 -7.48143 490.729 -0.585328 0.423838 -0.691197
-5.59216 -7.35517 490.636 -0.573525 0.402133 -0.713694
-5.38708 -7.21672 490.569 -0.579169 0.416269 -0.700916
-5.19304 -7.08319 490.491 -0.573923 0.424598 -0.700235
-5.01423 -6.95612 490.399 -0.552704 0.395937 -0.733316
-4.81393 -6.81997 490.326 -0.554546 0.393184 -0.733407
-4.61893 -6.68576 490.25 -0.524245 0.44072 -0.728652
-4.37651 -6.5314 490.215 -0.481694 0.455517 -0.748649
-4.18028 -6.39707 490.137 -0.469691 0.452112 -0.758277
-3.94424 -6.24488 490.098 -0.458202 0.450736 -0.766086
-3.71173 -6.09465 490.053 -0.47025 0.450935 -0.758632
-3.49296 -5.95019 489.996 -0.422009 0.471276 -0.774472
-3.24126 -5.79148 489.969 -0.403897 0.468109 -0.785965
-2.98913 -5.63253 489.942 -0.403008 0.497231 -0.76834
-2.7354 -5.47286 489.916 -0.348007 0.539905 -0.766416
-2.4437 -5.2967 489.924 -0.323034 0.524601 -0.787682
-2.16568 -5.12641 489.92 -0.297348 0.505552 -0.809939
-1.87622 -4.95112 489.925 -0.290994 0.476848 -0.829421
-1.61954 -4.78998 489.901 -0.251279 0.479472 -0.840812
-1.27906 -4.59247 489.952 -0.252581 0.522902 -0.814111
-0.980401 -4.41302 489.965 -0.247598 0.553013 -0.795532
-0.637676 -4.21441 490.017 -0.15007 0.537031 -0.830106
-0.232017 -3.98841 490.125 -0.164026 0.53136 -0.831115
0.0639465 -3.80995 490.134 -0.163091 0.542083 -0.824347
0.447847 -3.59325 490.222 -0.0807483 0.554043 -0.828563
0.914371 -3.34057 490.383 -0.0748905 0.578988 -0.811889
1.33649 -3.10709 490.504 -0.0661482 0.596577 -0.799825
1.81095 -2.85077 490.671 -0.0197006 0.587764 -0.808792
-10.1727 -12.5713 504.277 -0.942274 -0.265144 0.204493
-10.2538 -12.5542 503.937 -0.947901 -0.257336 0.187779
-10.3257 -12.5333 503.607 -0.938824 -0.279228 0.201599
-10.414 -12.5193 503.262 -0.935085 -0.278715 0.218938
-10.4823 -12.4969 502.935 -0.958154 -0.231673 0.168131
-10.5381 -12.4694 502.621 -0.97959 -0.16644 0.112699
-10.5735 -12.4332 502.327 -0.973704 -0.182713 0.136078
-10.6439 -12.4119 501.999 -0.974355 -0.198159 0.106606
-10.654 -12.3652 501.73 -0.976517 -0.20872 0.0533837
-10.6849 -12.3273 501.441 -0.96927 -0.233608 0.0770929
-10.708 -12.2861 501.159 -0.977912 -0.204983 0.0408597
-10.7193 -12.24 500.889 -0.98015 -0.192185 0.048683
-10.7566 -12.2049 500.594 -0.988126 -0.142094 0.0584408
-10.7643 -12.1573 500.327 -0.998587 -0.051976 -0.0110705
-10.7489 -12.1001 500.083 -0.997761 -0.049038 -0.0454737
-10.7376 -12.0445 499.835 -0.995793 -0.0912571 -0.00829282
-10.7574 -12.0021 499.557 -0.996616 -0.0784814 -0.0244458
-10.7375 -11.9429 499.318 -0.996178 -0.0533177 -0.0691878
-10.7232 -11.886 499.073 -0.996344 -0.0441645 -0.0731238
-10.7133 -11.8317 498.824 -0.995389 -0.0387766 -0.087731
-10.6858 -11.7691 498.592 -0.994973 -0.0612254 -0.0792499
-10.6772 -11.715 498.342 -0.992654 -0.0309586 -0.116956
-10.6464 -11.6514 498.114 -0.987873 -0.0406271 -0.149855
-10.6087 -11.5846 497.892 -0.985651 -0.0419742 -0.163494
-10.5714 -11.5183 497.669 -0.983947 -0.00131165 -0.178457
-10.5369 -11.4531 497.445 -0.983179 0.0123912 -0.182223
-10.5001 -11.3871 497.222 -0.980944 -0.00955432 -0.194055
-10.4483 -11.3146 497.014 -0.982904 -0.00930358 -0.183884
-10.3994 -11.2434 496.803 -0.979109 0.0474067 -0.197731
-10.3526 -11.1731 496.59 -0.954646 0.110876 -0.276328
-10.2737 -11.0891 496.407 -0.946908 0.121353 -0.297723
-10.2077 -11.0106 496.212 -0.959563 0.0834708 -0.268832
-10.1478 -10.9348 496.012 -0.964052 0.0732266 -0.255424
-10.0931 -10.8612 495.807 -0.960139 0.0877695 -0.265386
-10.0284 -10.7833 495.611 -0.928089 0.139514 -0.345233
-9.92516 -10.6891 495.451 -0.936432 0.130934 -0.325501
-9.87341 -10.6168 495.243 -0.955983 0.104729 -0.274097
-9.80651 -10.538 495.05 -0.944863 0.11884 -0.305141
-9.73573 -10.4576 494.86 -0.921998 0.149004 -0.357375
-9.64528 -10.3688 494.688 -0.891129 0.197444 -0.40854
-9.53992 -10.2736 494.531 -0.884681 0.198203 -0.421966
-9.43962 -10.1806 494.368 -0.886712 0.169845 -0.429994
-9.34672 -10.0908 494.199 -0.882722 0.163204 -0.440642
-9.24057 -9.99527 494.042 -0.887897 0.175021 -0.425449
-9.13454 -9.8998 493.885 -0.88973 0.203142 -0.408796
-9.04457 -9.81125 493.714 -0.882577 0.219677 -0.415692
-8.9476 -9.71968 493.548 -0.884913 0.206212 -0.41762
-8.84215 -9.62449 493.391 -0.878888 0.2257 -0.420256
-8.73572 -9.52887 493.234 -0.827642 0.301891 -0.47315
-8.5995 -9.42048 493.105 -0.81253 0.311886 -0.492465
-8.48345 -9.32073 492.957 -0.81125 0.295805 -0.504353
-8.3547 -9.21554 492.821 -0.807476 0.282687 -0.517756
-8.24727 -9.11948 492.665 -0.80847 0.257532 -0.529201
-8.1152 -9.01285 492.532 -0.781539 0.265646 -0.564473
-7.98957 -8.90898 492.393 -0.766989 0.261744 -0.585847
-7.83838 -8.79412 492.278 -0.753419 0.27164 -0.598808
-7.69557 -8.68284 492.154 -0.788346 0.258896 -0.558107
-7.58522 -8.58552 492.001 -0.717592 0.325733 -0.615596
-7.39934 -8.45571 491.917 -0.685829 0.358616 -0.633271
-7.25356 -8.34313 491.797 -0.761839 0.30414 -0.571926
-7.11802 -8.23493 491.666 -0.6572 0.386437 -0.647113
-6.91156 -8.09621 491.601 -0.702676 0.362001 -0.612538
-6.79421 -7.99583 491.454 -0.774828 0.28617 -0.563692
-6.65002 -7.88389 491.332 -0.653545 0.373565 -0.658277
-6.46388 -7.75385 491.247 -0.691056 0.3707 -0.620502
-6.31417 -7.6395 491.13 -0.660267 0.386958 -0.643669
-6.12176 -7.50688 491.05 -0.603681 0.404228 -0.687146
-5.94992 -7.3828 490.953 -0.655958 0.376449 -0.654221
-5.79281 -7.26502 490.843 -0.603926 0.384524 -0.698151
-5.58162 -7.12426 490.78 -0.55536 0.404682 -0.726504
-5.38861 -6.99113 490.701 -0.568051 0.406485 -0.715603
-5.20595 -6.86245 490.613 -0.597365 0.365405 -0.713887
-5.02779 -6.73565 490.521 -0.554761 0.395167 -0.732177
-4.79991 -6.58746 490.473 -0.524184 0.430019 -0.735061
-4.59408 -6.44873 490.405 -0.518659 0.434422 -0.736391
-4.40071 -6.31523 490.327 -0.486343 0.447632 -0.750397
-4.15524 -6.15925 490.295 -0.480861 0.465096 -0.743275
-3.94212 -6.01723 490.233 -0.467176 0.478805 -0.743298
-3.71141 -5.86746 490.188 -0.468306 0.469105 -0.748752
-3.48516 -5.71981 490.137 -0.438102 0.486333 -0.756007
-3.22996 -5.55946 490.113 -0.39367 0.513332 -0.762571
-2.96688 -5.39566 490.096 -0.374583 0.524057 -0.764887
-2.68097 -5.22192 490.099 -0.367664 0.533896 -0.761431
-2.44002 -5.06762 490.061 -0.349305 0.524203 -0.776658
-2.16021 -4.89643 490.059 -0.325999 0.4989 -0.803009
-1.90466 -4.73572 490.034 -0.300194 0.485854 -0.820871
-1.57806 -4.54412 490.072 -0.229864 0.515925 -0.825217
-1.23793 -4.34658 490.122 -0.224589 0.530289 -0.817529
-0.926602 -4.16149 490.147 -0.26355 0.541045 -0.798631
-0.640351 -3.98724 490.148 -0.164935 0.550828 -0.81816
-0.23993 -3.76331 490.251 -0.129168 0.496743 -0.858232
0.0894991 -3.57016 490.291 -0.133943 0.519189 -0.844099
0.536898 -3.32564 490.435 -0.0700172 0.56906 -0.819309
0.954416 -3.09402 490.552 -0.0423641 0.55868 -0.828301
1.42833 -2.83777 490.719 -0.0399704 0.559733 -0.827709
1.85191 -2.60333 490.841 0.00893429 0.560315 -0.828231
-10.2067 -12.3587 504.385 -0.934682 -0.293224 0.200972
-10.3124 -12.352 504.022 -0.939334 -0.282175 0.195011
-10.3541 -12.3185 503.721 -0.939582 -0.280381 0.196398
-10.4544 -12.3096 503.364 -0.94503 -0.252941 0.207216
-10.5118 -12.2828 503.048 -0.969907 -0.193534 0.14773
-10.5431 -12.245 502.757 -0.981367 -0.151909 0.11765
-10.5853 -12.2118 502.456 -0.968221 -0.196507 0.154703
-10.6599 -12.1924 502.124 -0.972026 -0.194627 0.131478
-10.6948 -12.1562 501.831 -0.985833 -0.150921 0.0731859
-10.7281 -12.1194 501.539 -0.980638 -0.180402 0.0761895
-10.7586 -12.0814 501.25 -0.985356 -0.167028 0.034272
-10.7617 -12.0319 500.988 -0.989159 -0.146376 0.011773
-10.7504 -11.9763 500.739 -0.994282 -0.104094 0.0238353
-10.7619 -11.9304 500.469 -0.997498 -0.0706847 -0.000746988
-10.7714 -11.8836 500.201 -0.997683 -0.0614022 -0.0292857
-10.7716 -11.833 499.942 -0.996621 -0.0815595 -0.00974219
-10.7691 -11.7813 499.685 -0.997533 -0.0665166 -0.0224363
-10.7625 -11.7277 499.433 -0.996858 -0.0348251 -0.071149
-10.7417 -11.6686 499.194 -0.99529 -0.0617891 -0.0746955
-10.7274 -11.6117 498.949 -0.994663 -0.067047 -0.0784196
-10.7177 -11.557 498.701 -0.994804 -0.0544727 -0.0860109
-10.6927 -11.4959 498.466 -0.994115 -0.04889 -0.0966683
-10.6758 -11.4381 498.224 -0.989572 -0.0338563 -0.140003
-10.6403 -11.3724 498 -0.982404 -0.0144666 -0.186209
-10.5886 -11.3001 497.791 -0.980609 -0.019407 -0.195013
-10.5442 -11.2308 497.576 -0.98721 -0.00111972 -0.159422
-10.5158 -11.1683 497.345 -0.982172 0.0635458 -0.176917
-10.459 -11.0938 497.141 -0.975976 0.081998 -0.201858
-10.4184 -11.0261 496.922 -0.97548 0.0453667 -0.215362
-10.3557 -10.9491 496.724 -0.955308 0.109229 -0.274691
-10.2833 -10.8679 496.535 -0.953101 0.133923 -0.271409
-10.235 -10.797 496.324 -0.960339 0.0898519 -0.26396
-10.1621 -10.7156 496.136 -0.961989 0.100546 -0.253906
-10.107 -10.6419 495.931 -0.958917 0.113719 -0.259896
-10.0306 -10.559 495.746 -0.927021 0.147571 -0.344752
-9.95199 -10.4752 495.563 -0.933589 0.0949191 -0.345545
-9.87866 -10.3937 495.375 -0.955157 0.0452456 -0.292622
-9.8152 -10.3164 495.178 -0.945109 0.116845 -0.305148
-9.73164 -10.2306 495 -0.915053 0.189632 -0.355975
-9.63128 -10.1375 494.838 -0.894677 0.204545 -0.397132
-9.54739 -10.0515 494.66 -0.899854 0.1885 -0.393359
-9.46559 -9.96645 494.481 -0.893584 0.185372 -0.408833
-9.35961 -9.87101 494.324 -0.874729 0.206175 -0.438566
-9.25459 -9.77597 494.166 -0.870564 0.218669 -0.440797
-9.15503 -9.68328 494.003 -0.883725 0.206776 -0.41985
-9.05357 -9.58974 493.841 -0.889608 0.220727 -0.399846
-8.95382 -9.49702 493.678 -0.876328 0.260524 -0.405186
-8.84746 -9.40141 493.522 -0.855656 0.286089 -0.431283
-8.72638 -9.29948 493.378 -0.828721 0.30651 -0.468267
-8.6132 -9.20095 493.228 -0.826104 0.288551 -0.484035
-8.49896 -9.10196 493.079 -0.823111 0.271627 -0.498705
-8.37559 -8.99902 492.937 -0.825928 0.262813 -0.498771
-8.25708 -8.89825 492.792 -0.817356 0.262052 -0.513087
-8.12673 -8.79229 492.657 -0.795767 0.292298 -0.530392
-7.99788 -8.68701 492.521 -0.774251 0.32619 -0.542343
-7.8585 -8.57718 492.395 -0.752236 0.319438 -0.576282
-7.72347 -8.46922 492.264 -0.769516 0.280989 -0.573489
-7.56722 -8.35212 492.153 -0.70649 0.357472 -0.610808
-7.39712 -8.22903 492.054 -0.70091 0.368533 -0.610663
-7.26834 -8.12374 491.918 -0.730095 0.286371 -0.620446
-7.09265 -7.99821 491.825 -0.649319 0.343226 -0.678661
-6.93439 -7.88018 491.715 -0.726417 0.298824 -0.618888
-6.82434 -7.78293 491.561 -0.744383 0.24217 -0.622293
-6.63228 -7.65044 491.482 -0.639251 0.382438 -0.667157
-6.45823 -7.52541 491.387 -0.694129 0.398237 -0.59966
-6.32432 -7.41768 491.256 -0.666827 0.38358 -0.638912
-6.1303 -7.28429 491.178 -0.60403 0.38302 -0.698887
-5.95675 -7.15956 491.082 -0.659744 0.329519 -0.675392
-5.7956 -7.04018 490.974 -0.597465 0.3712 -0.710807
-5.59017 -6.90163 490.907 -0.544199 0.394602 -0.740362
-5.40542 -6.77201 490.821 -0.583529 0.352587 -0.731557
-5.22315 -6.64343 490.732 -0.577985 0.354337 -0.735104
-5.01759 -6.50475 490.664 -0.528299 0.402541 -0.74757
-4.81565 -6.36751 490.594 -0.515936 0.417735 -0.747869
-4.61861 -6.23254 490.518 -0.511404 0.427658 -0.745369
-4.37325 -6.0765 490.486 -0.479677 0.476611 -0.736717
-4.16014 -5.93446 490.424 -0.477409 0.485891 -0.732114
-3.92639 -5.78345 490.381 -0.481309 0.484424 -0.73053
-3.70341 -5.63703 490.329 -0.466325 0.491968 -0.735193
-3.46126 -5.48228 490.293 -0.417882 0.492058 -0.763711
-3.20567 -5.32165 490.269 -0.378971 0.503889 -0.776194
-2.94509 -5.15882 490.25 -0.349791 0.500175 -0.792131
-2.68483 -4.99607 490.23 -0.348547 0.472204 -0.809654
-2.41984 -4.83124 490.214 -0.367194 0.494057 -0.788084
-2.16042 -4.66877 490.192 -0.356241 0.517486 -0.778011
-1.8778 -4.49618 490.192 -0.313323 0.545833 -0.777107
-1.57984 -4.31687 490.204 -0.24617 0.561389 -0.790091
-1.2555 -4.12603 490.241 -0.209641 0.529491 -0.822003
-0.914869 -3.92804 490.291 -0.22401 0.489786 -0.842573
-0.604239 -3.74305 490.314 -0.196509 0.517029 -0.833106
-0.273588 -3.54928 490.355 -0.149964 0.553488 -0.819245
0.14009 -3.31928 490.47 -0.131633 0.58189 -0.802544
0.520136 -3.10386 490.554 -0.0823328 0.575172 -0.813879
0.968922 -2.8584 490.699 -0.0253861 0.537768 -0.84271
1.41282 -2.61498 490.84 -0.0209441 0.54034 -0.841186
1.88018 -2.36123 491 0.0384714 0.543414 -0.838583
-10.2574 -12.1529 504.478 -0.945227 -0.258234 0.19965
-10.3368 -12.1353 504.14 -0.94418 -0.265125 0.195535
-10.408 -12.1143 503.81 -0.949186 -0.259747 0.177698
-10.4638 -12.0868 503.495 -0.956035 -0.221903 0.191717
-10.5339 -12.0654 503.167 -0.977671 -0.162115 0.133708
-10.5631 -12.0268 502.878 -0.970151 -0.205343 0.128998
-10.6494 -12.0124 502.535 -0.954719 -0.254491 0.154095
-10.6784 -11.9737 502.247 -0.968074 -0.221 0.11829
-10.7172 -11.9393 501.95 -0.985446 -0.140727 0.0953498
-10.7443 -11.8999 501.664 -0.985443 -0.146289 0.0866084
-10.7775 -11.8632 501.372 -0.994186 -0.100685 0.0381532
-10.7707 -11.8092 501.119 -0.998799 -0.0478939 -0.0103567
-10.7847 -11.7647 500.846 -0.995878 -0.0901252 0.0101765
-10.7987 -11.7199 500.573 -0.994223 -0.107312 -0.00199352
-10.7827 -11.6622 500.329 -0.993721 -0.107632 -0.030546
-10.7798 -11.6105 500.073 -0.996284 -0.0844352 -0.017016
-10.7845 -11.5619 499.81 -0.997743 -0.0622673 -0.0251474
-10.7762 -11.5078 499.559 -0.997366 -0.0526521 -0.0498794
-10.7735 -11.4562 499.303 -0.996909 -0.0449131 -0.0644597
-10.7578 -11.3989 499.059 -0.994844 -0.0573587 -0.0836395
-10.7294 -11.3364 498.828 -0.994215 -0.0621942 -0.0875723
-10.7219 -11.2826 498.577 -0.995488 -0.0390146 -0.0864975
-10.6969 -11.2213 498.343 -0.992218 0.00332101 -0.12447
-10.6579 -11.1545 498.122 -0.986086 0.0337093 -0.162783
-10.629 -11.0918 497.891 -0.976515 0.0793652 -0.200298
-10.5575 -11.0109 497.701 -0.978712 0.0930768 -0.182919
-10.5154 -10.9426 497.483 -0.981452 0.0709249 -0.178104
-10.466 -10.8712 497.272 -0.983846 0.0227272 -0.177569
-10.4488 -10.8136 497.032 -0.96824 0.0369912 -0.247272
-10.3484 -10.7205 496.869 -0.946957 0.117503 -0.299109
-10.3028 -10.6507 496.655 -0.964464 0.100813 -0.244226
-10.2334 -10.5709 496.463 -0.955682 0.108547 -0.273658
-10.1642 -10.4911 496.271 -0.959127 0.0828496 -0.270577
-10.1114 -10.4183 496.064 -0.962602 0.0540016 -0.265482
-10.0572 -10.345 495.858 -0.944487 0.0901151 -0.315947
-9.98165 -10.2625 495.672 -0.940649 0.0991972 -0.324561
-9.91571 -10.1842 495.478 -0.936077 0.0931146 -0.339249
-9.81646 -10.0916 495.314 -0.927604 0.0847714 -0.36382
-9.74613 -10.0114 495.124 -0.917779 0.121749 -0.377967
-9.66261 -9.92554 494.945 -0.899777 0.15782 -0.406809
-9.56047 -9.83173 494.785 -0.90429 0.151322 -0.3992
-9.46601 -9.74122 494.617 -0.892212 0.185746 -0.411651
-9.36495 -9.64786 494.455 -0.869306 0.215717 -0.444716
-9.25864 -9.55227 494.298 -0.869234 0.199571 -0.452332
-9.15222 -9.45661 494.141 -0.870136 0.20745 -0.447021
-9.04287 -9.35969 493.987 -0.870517 0.219467 -0.440494
-8.93657 -9.26411 493.83 -0.871048 0.231343 -0.433307
-8.83247 -9.16946 493.671 -0.8564 0.251478 -0.450929
-8.7261 -9.07388 493.515 -0.843658 0.253952 -0.473022
-8.61146 -8.97463 493.365 -0.840288 0.259609 -0.47594
-8.49353 -8.87408 493.219 -0.829356 0.29067 -0.477158
-8.37328 -8.77245 493.075 -0.832678 0.285794 -0.474309
-8.26415 -8.67564 492.921 -0.8064 0.281788 -0.519918
-8.11876 -8.5632 492.8 -0.776656 0.288463 -0.559995
-7.98547 -8.45597 492.668 -0.791202 0.307221 -0.528787
-7.86315 -8.35346 492.526 -0.778488 0.33037 -0.533678
-7.71899 -8.24154 492.403 -0.738011 0.333419 -0.586661
-7.56858 -8.1269 492.287 -0.693391 0.337012 -0.636892
-7.41352 -8.01024 492.175 -0.75026 0.271075 -0.603016
-7.3045 -7.91344 492.02 -0.717494 0.298704 -0.629268
-7.11712 -7.78294 491.937 -0.650401 0.327884 -0.68518
-6.96732 -7.66839 491.82 -0.763652 0.275006 -0.584129
-6.83537 -7.56153 491.687 -0.683867 0.360681 -0.63422
-6.62201 -7.41976 491.627 -0.603588 0.424601 -0.67483
-6.45745 -7.29891 491.523 -0.720833 0.377439 -0.581325
-6.31811 -7.18896 491.395 -0.695675 0.37875 -0.610398
-6.1459 -7.06477 491.298 -0.635667 0.385129 -0.669031
-5.9838 -6.94494 491.192 -0.64829 0.344827 -0.678833
-5.80145 -6.81633 491.103 -0.600728 0.393042 -0.696163
-5.61176 -6.68452 491.022 -0.57165 0.388275 -0.722813
-5.42583 -6.55442 490.936 -0.576804 0.332279 -0.746249
-5.23675 -6.4226 490.855 -0.550452 0.372331 -0.747243
-5.03304 -6.28477 490.785 -0.524549 0.425483 -0.737437
-4.81747 -6.14165 490.726 -0.518751 0.449369 -0.7273
-4.58928 -5.99302 490.679 -0.487262 0.485531 -0.725834
-4.36652 -5.84671 490.626 -0.474499 0.489597 -0.731537
-4.13771 -5.69774 490.579 -0.477865 0.485574 -0.732026
-3.90811 -5.54844 490.532 -0.477792 0.487733 -0.730638
-3.68784 -5.40302 490.477 -0.473548 0.477236 -0.740269
-3.46676 -5.2573 490.422 -0.408753 0.484777 -0.773248
-3.19985 -5.0917 490.408 -0.373955 0.475029 -0.796558
-2.96117 -4.93826 490.369 -0.37196 0.481501 -0.793601
-2.69156 -4.77134 490.358 -0.33779 0.502821 -0.795656
-2.3975 -4.59374 490.368 -0.339528 0.491405 -0.802024
-2.13705 -4.43071 490.347 -0.321703 0.507766 -0.799175
-1.82289 -4.24425 490.375 -0.294874 0.537157 -0.790261
-1.53497 -4.06916 490.379 -0.274367 0.54518 -0.792149
-1.22117 -3.88275 490.405 -0.256339 0.541883 -0.800408
-0.948723 -3.7143 490.395 -0.240495 0.551488 -0.798763
-0.581703 -3.50458 490.469 -0.193341 0.563264 -0.803338
-0.193723 -3.28565 490.561 -0.131648 0.567573 -0.81273
0.21561 -3.05733 490.671 -0.128511 0.572374 -0.80986
0.573316 -2.85145 490.736 -0.106213 0.565628 -0.817792
0.99416 -2.61793 490.856 -0.0420036 0.562135 -0.825978
1.47241 -2.35928 491.027 -0.0310161 0.561153 -0.827131
1.91276 -2.11706 491.164 0.0361734 0.563656 -0.825217
-10.3762 -11.9248 504.243 -0.943534 -0.266376 0.196947
-10.443 -11.9021 503.918 -0.959615 -0.238102 0.14982
-10.4732 -11.8638 503.627 -0.953132 -0.250883 0.169108
-10.5711 -11.8543 503.272 -0.961797 -0.224117 0.157221
-10.6055 -11.818 502.978 -0.96425 -0.215978 0.153542
-10.6804 -11.7988 502.646 -0.965023 -0.216906 0.147253
-10.706 -11.7588 502.361 -0.98376 -0.16293 0.0753011
-10.7263 -11.7166 502.081 -0.981176 -0.165516 0.0994891
-10.7836 -11.6901 501.766 -0.985518 -0.154008 0.070967
-10.7729 -11.6348 501.516 -0.99426 -0.105663 0.0168245
-10.7952 -11.5934 501.235 -0.996881 -0.0783424 0.00955793
-10.791 -11.5414 500.98 -0.995376 -0.0915569 0.0290606
-10.8156 -11.5009 500.697 -0.994266 -0.106398 0.0107181
-10.8247 -11.4542 500.429 -0.992628 -0.106894 -0.0571261
-10.8001 -11.3933 500.193 -0.992812 -0.113457 -0.0381128
-10.8077 -11.3457 499.927 -0.994397 -0.101537 -0.0293898
-10.7945 -11.2895 499.681 -0.99633 -0.0674563 -0.0526899
-10.7806 -11.2332 499.435 -0.997297 -0.0564721 -0.0470026
-10.778 -11.1816 499.179 -0.997094 -0.0283099 -0.0707237
-10.762 -11.1242 498.936 -0.994118 -0.0347757 -0.102562
-10.7244 -11.0577 498.713 -0.99287 -0.0501337 -0.108143
-10.7036 -10.9986 498.475 -0.991145 0.000778572 -0.132786
-10.6655 -10.932 498.253 -0.98216 0.0414299 -0.183428
-10.5979 -10.8528 498.059 -0.970854 0.101269 -0.217224
-10.5502 -10.7821 497.846 -0.9825 0.0807263 -0.167861
-10.5405 -10.7276 497.598 -0.989079 0.0423006 -0.141183
-10.5022 -10.661 497.376 -0.986716 -0.00643931 -0.162327
-10.462 -10.5936 497.157 -0.953639 0.0349029 -0.298921
-10.3619 -10.5006 496.994 -0.940609 0.0898332 -0.327389
-10.3148 -10.4303 496.781 -0.966786 0.0690604 -0.246081
-10.2486 -10.3517 496.586 -0.962025 0.0740303 -0.26273
-10.2114 -10.2857 496.364 -0.963478 0.021676 -0.26691
-10.1394 -10.2047 496.175 -0.958465 0.0204433 -0.284475
-10.0749 -10.127 495.979 -0.943549 0.101985 -0.315141
-9.98138 -10.0369 495.81 -0.945974 0.122278 -0.300302
-9.93327 -9.96617 495.598 -0.944565 0.121799 -0.304897
-9.8603 -9.88485 495.41 -0.919475 0.144803 -0.365511
-9.76615 -9.79444 495.242 -0.910502 0.136466 -0.390338
-9.66289 -9.70013 495.082 -0.901625 0.186121 -0.390426
-9.5832 -9.61593 494.9 -0.893615 0.19968 -0.40197
-9.47767 -9.52065 494.742 -0.887045 0.179609 -0.425313
-9.38794 -9.43217 494.57 -0.87604 0.153009 -0.457321
-9.28162 -9.33655 494.413 -0.857231 0.141121 -0.495217
-9.1752 -9.24087 494.256 -0.854888 0.142643 -0.498818
-9.06883 -9.14525 494.099 -0.853973 0.139708 -0.50121
-8.96176 -9.04931 493.943 -0.857463 0.133695 -0.496873
-8.8554 -8.9537 493.786 -0.853501 0.141098 -0.501625
-8.74234 -8.85512 493.635 -0.832694 0.167629 -0.527752
-8.61807 -8.75185 493.495 -0.81427 0.19756 -0.545834
-8.49141 -8.64742 493.357 -0.823737 0.199559 -0.530692
-8.38278 -8.55083 493.202 -0.84357 0.175828 -0.50742
-8.27346 -8.45381 493.048 -0.811376 0.219574 -0.541717
-8.14724 -8.34975 492.91 -0.747603 0.279714 -0.602371
-7.98555 -8.23017 492.803 -0.770871 0.26155 -0.580818
-7.86236 -8.1272 492.661 -0.791758 0.262425 -0.551591
-7.73412 -8.02223 492.525 -0.75455 0.309391 -0.578732
-7.59225 -7.91117 492.4 -0.722368 0.313415 -0.616405
-7.44009 -7.79554 492.284 -0.74313 0.275149 -0.60996
-7.28597 -7.67961 492.173 -0.72218 0.297955 -0.624242
-7.1408 -7.56697 492.051 -0.655446 0.380083 -0.652631
-6.94285 -7.43168 491.977 -0.738636 0.379222 -0.557322
-6.83045 -7.33338 491.826 -0.667141 0.438923 -0.601888
-6.60717 -7.18709 491.775 -0.60438 0.448267 -0.658621
-6.45792 -7.07281 491.657 -0.727316 0.338173 -0.597201
-6.31179 -6.95988 491.536 -0.70646 0.313908 -0.634332
-6.15362 -6.84172 491.426 -0.66058 0.3346 -0.672069
-5.98127 -6.7174 491.329 -0.626288 0.377725 -0.681973
-5.78883 -6.58435 491.25 -0.624565 0.413866 -0.662294
-5.63234 -6.46677 491.138 -0.630879 0.395915 -0.667266
-5.45389 -6.33984 491.046 -0.569386 0.400361 -0.71799
-5.23506 -6.19527 490.99 -0.531536 0.454014 -0.715081
-5.01629 -6.0507 490.934 -0.517422 0.473679 -0.712674
-4.79975 -5.90706 490.876 -0.494424 0.474617 -0.728205
-4.58002 -5.76201 490.821 -0.480681 0.47308 -0.738337
-4.35526 -5.6149 490.77 -0.474376 0.480159 -0.737845
-4.12572 -5.46535 490.724 -0.485495 0.508992 -0.71079
-3.90582 -5.32013 490.668 -0.496974 0.498543 -0.710262
-3.68501 -5.17447 490.614 -0.480821 0.472327 -0.738728
-3.45077 -5.02295 490.571 -0.430904 0.488219 -0.758923
-3.21078 -4.86888 490.533 -0.385564 0.508923 -0.769635
-2.9257 -4.69514 490.535 -0.370029 0.510547 -0.776157
-2.66695 -4.53282 490.514 -0.356574 0.513114 -0.780749
-2.41691 -4.37426 490.484 -0.34159 0.521555 -0.781855
-2.12137 -4.19582 490.495 -0.306165 0.532427 -0.789167
-1.83087 -4.01952 490.502 -0.275808 0.518692 -0.809252
-1.52925 -3.83833 490.518 -0.252154 0.502433 -0.82703
-1.21693 -3.65241 490.543 -0.231862 0.519889 -0.822165
-0.847578 -3.44155 490.619 -0.224231 0.544512 -0.808225
-0.544931 -3.25973 490.636 -0.183227 0.555956 -0.810766
-0.195901 -3.0576 490.693 -0.112198 0.547981 -0.828932
0.211766 -2.8298 490.802 -0.10089 0.527402 -0.843605
0.584063 -2.61736 490.88 -0.0857305 0.538415 -0.838308
1.04125 -2.36774 491.032 -0.0510123 0.573441 -0.817657
1.47721 -2.12731 491.165 -0.0142479 0.550071 -0.834996
1.98207 -1.85665 491.36 0.0320351 0.548423 -0.835587
-10.411 -11.7123 504.351 -0.936381 -0.295776 0.188963
-10.4775 -11.6895 504.026 -0.95782 -0.243954 0.151879
-10.5419 -11.6659 503.702 -0.953662 -0.25861 0.153781
-10.5825 -11.6322 503.402 -0.963976 -0.217038 0.153766
-10.6351 -11.6036 503.091 -0.969983 -0.183031 0.160104
-10.7018 -11.5811 502.766 -0.976307 -0.163555 0.141683
-10.7335 -11.5438 502.475 -0.991988 -0.100091 0.0770789
-10.7606 -11.5045 502.189 -0.983257 -0.149601 0.104044
-10.8023 -11.4715 501.888 -0.99274 -0.10168 0.0642571
-10.8038 -11.4215 501.627 -0.99752 -0.0702747 0.00396438
-10.8087 -11.3729 501.362 -0.991632 -0.129076 0.00219155
-10.8129 -11.3242 501.099 -0.985944 -0.16294 0.0369398
-10.8582 -11.2927 500.796 -0.988839 -0.145452 0.0322741
-10.8409 -11.2348 500.553 -0.996529 -0.065614 -0.0512376
-10.8366 -11.1824 500.298 -0.996083 -0.0763304 -0.044641
-10.8292 -11.1287 500.046 -0.996534 -0.072004 -0.0416612
-10.8154 -11.0724 499.8 -0.996905 -0.0493171 -0.0612162
-10.8066 -11.0183 499.549 -0.995828 -0.0666823 -0.062287
-10.7849 -10.9586 499.311 -0.995902 -0.0690091 -0.0584479
-10.7822 -10.9069 499.055 -0.99645 -0.0183629 -0.0821589
-10.7634 -10.8486 498.815 -0.991812 0.00699955 -0.127513
-10.7206 -10.7799 498.597 -0.989812 0.00516516 -0.142287
-10.6905 -10.7168 498.368 -0.974369 0.0664302 -0.214923
-10.6217 -10.6371 498.175 -0.968333 0.0532986 -0.243907
-10.5828 -10.5702 497.954 -0.983306 -0.0316104 -0.179194
-10.5262 -10.4959 497.749 -0.99294 -0.0473692 -0.108747
-10.5388 -10.4509 497.48 -0.992114 0.0191661 -0.123862
-10.4852 -10.3778 497.273 -0.944616 0.164231 -0.284128
-10.394 -10.2886 497.101 -0.931837 0.184287 -0.312599
-10.3197 -10.2066 496.914 -0.968094 0.078678 -0.237917
-10.2825 -10.1406 496.692 -0.97356 0.0234866 -0.227222
-10.2207 -10.064 496.493 -0.968482 0.0738421 -0.237886
-10.1682 -9.99142 496.285 -0.942281 0.176406 -0.284584
-10.0682 -9.89843 496.122 -0.933891 0.164881 -0.317273
-10.017 -9.82647 495.913 -0.943409 0.0436354 -0.328748
-9.92891 -9.73863 495.739 -0.944975 0.039235 -0.324782
-9.86131 -9.65961 495.546 -0.928431 0.146897 -0.341229
-9.77574 -9.57289 495.37 -0.890501 0.219146 -0.398726
-9.67149 -9.47814 495.211 -0.898693 0.19131 -0.394653
-9.58507 -9.39106 495.035 -0.907884 0.155009 -0.38951
-9.4997 -9.30443 494.858 -0.906882 0.15695 -0.391066
-9.4216 -9.22095 494.675 -0.892715 0.151325 -0.424453
-9.31573 -9.12554 494.518 -0.860715 0.167043 -0.480901
-9.2092 -9.02979 494.361 -0.86127 0.177222 -0.476241
-9.1027 -8.93404 494.204 -0.861232 0.187776 -0.472249
-8.99576 -8.83823 494.048 -0.861953 0.197586 -0.466902
-8.8892 -8.74246 493.891 -0.855443 0.213355 -0.471908
-8.77797 -8.64472 493.739 -0.829142 0.22805 -0.510408
-8.65548 -8.54211 493.597 -0.810253 0.219285 -0.543511
-8.53755 -8.44147 493.45 -0.824849 0.166934 -0.540145
-8.42364 -8.34257 493.3 -0.826732 0.155565 -0.540661
-8.29242 -8.23618 493.166 -0.799625 0.239899 -0.550499
-8.15315 -8.12631 493.039 -0.754007 0.298213 -0.58527
-8.01695 -8.01776 492.91 -0.758117 0.265129 -0.595789
-7.88373 -7.91049 492.778 -0.772071 0.272102 -0.574341
-7.72783 -7.79341 492.666 -0.765641 0.291113 -0.573626
-7.6035 -7.68996 492.525 -0.750522 0.338274 -0.567703
-7.44739 -7.57276 492.414 -0.748289 0.377702 -0.545348
-7.32931 -7.47201 492.268 -0.685897 0.368032 -0.627773
-7.10084 -7.32345 492.222 -0.619345 0.421311 -0.662502
-6.94519 -7.20641 492.11 -0.710007 0.379766 -0.593016
-6.78713 -7.0883 492 -0.679758 0.402006 -0.61345
-6.62053 -6.96648 491.898 -0.659395 0.422655 -0.62174
-6.47326 -6.85302 491.778 -0.756323 0.30219 -0.580222
-6.35269 -6.75113 491.634 -0.706068 0.301017 -0.640982
-6.16389 -6.61963 491.551 -0.636799 0.359191 -0.682252
-5.98921 -6.49424 491.456 -0.593719 0.407383 -0.693929
-5.77865 -6.35326 491.393 -0.642439 0.414677 -0.644449
-5.63498 -6.24129 491.27 -0.659248 0.423635 -0.621229
-5.42534 -6.10065 491.206 -0.547595 0.47619 -0.688028
-5.20983 -5.95744 491.148 -0.522103 0.480195 -0.704855
-5.01124 -5.82154 491.073 -0.515386 0.45115 -0.728588
-4.79758 -5.67919 491.012 -0.492214 0.45398 -0.742716
-4.57465 -5.53242 490.961 -0.471817 0.46884 -0.746711
-4.3383 -5.38035 490.919 -0.44873 0.511698 -0.732671
-4.07584 -5.21643 490.903 -0.496339 0.511033 -0.701779
-3.89202 -5.08671 490.815 -0.52819 0.478893 -0.701197
-3.66922 -4.94006 490.762 -0.480401 0.482715 -0.732258
-3.44469 -4.79264 490.711 -0.420899 0.497803 -0.758311
-3.16357 -4.62059 490.71 -0.387398 0.509932 -0.768044
-2.94111 -4.47389 490.656 -0.349147 0.474489 -0.808057
-2.6543 -4.29934 490.659 -0.327851 0.476764 -0.815604
-2.36637 -4.12413 490.664 -0.330172 0.515463 -0.79075
-2.08875 -3.95337 490.659 -0.318508 0.51943 -0.792935
-1.82064 -3.78671 490.645 -0.298389 0.521023 -0.799687
-1.51763 -3.60476 490.663 -0.249676 0.523719 -0.814482
-1.19264 -3.41316 490.699 -0.22799 0.5517 -0.802277
-0.886677 -3.22981 490.719 -0.216092 0.548357 -0.807842
-0.532949 -3.02552 490.78 -0.187359 0.548848 -0.814655
-0.149521 -2.80818 490.869 -0.148113 0.571094 -0.807412
0.220577 -2.59658 490.944 -0.121498 0.56786 -0.814109
0.641766 -2.36256 491.065 -0.0748624 0.567175 -0.820188
1.09093 -2.11621 491.211 -0.049131 0.548619 -0.834628
1.486 -1.89344 491.308 -0.000126339 0.534099 -0.845422
-10.4553 -11.5037 504.45 -0.958906 -0.223745 0.174464
-10.5124 -11.477 504.133 -0.960694 -0.224333 0.163529
-10.5657 -11.4488 503.821 -0.967997 -0.214404 0.130435
-10.6002 -11.4126 503.526 -0.967382 -0.219167 0.127031
-10.6615 -11.3878 503.206 -0.96151 -0.231797 0.147541
-10.6999 -11.3534 502.908 -0.977344 -0.173577 0.121117
-10.7359 -11.3179 502.613 -0.984142 -0.148852 0.0964789
-10.778 -11.2851 502.312 -0.987586 -0.130529 0.0873801
-10.7895 -11.2394 502.041 -0.99212 -0.106729 0.0656197
-10.8271 -11.2047 501.745 -0.989907 -0.135891 0.0402141
-10.8518 -11.1647 501.461 -0.987743 -0.155718 0.0107617
-10.8588 -11.1171 501.195 -0.98607 -0.164511 0.0245526
-10.8593 -11.0667 500.935 -0.995113 -0.0979186 0.0127503
-10.8631 -11.0178 500.671 -0.998897 -0.0286358 -0.037216
-10.8495 -10.9616 500.425 -0.998272 -0.0408187 -0.0422751
-10.8411 -10.9072 500.174 -0.998289 -0.0378226 -0.0445862
-10.8342 -10.8541 499.921 -0.997626 -0.0511933 -0.0460513
-10.8286 -10.801 499.668 -0.996578 -0.0569124 -0.0599484
-10.8178 -10.7464 499.419 -0.995022 -0.0481271 -0.0872612
-10.7797 -10.6794 499.197 -0.994645 -0.0518486 -0.0894094
-10.7649 -10.6231 498.952 -0.993183 0.0165348 -0.115385
-10.7293 -10.5577 498.728 -0.987279 0.0767835 -0.139231
-10.6912 -10.491 498.505 -0.980312 0.0642974 -0.186692
-10.6461 -10.4215 498.29 -0.978662 0.0389312 -0.201754
-10.6115 -10.3565 498.065 -0.982442 0.0217763 -0.185295
-10.5714 -10.2891 497.845 -0.986715 -0.0303024 -0.159608
-10.5177 -10.2158 497.638 -0.984548 0.0067438 -0.174983
-10.4539 -10.1385 497.44 -0.944461 0.1332 -0.300418
-10.3752 -10.0546 497.257 -0.953125 0.134238 -0.27117
-10.3534 -9.99518 497.02 -0.978435 0.045782 -0.201419
-10.2983 -9.92148 496.815 -0.963738 0.0515969 -0.261815
-10.217 -9.83654 496.634 -0.946825 0.137351 -0.29096
-10.1312 -9.74974 496.457 -0.952127 0.167097 -0.255992
-10.1049 -9.68838 496.225 -0.970663 0.0738234 -0.228832
-10.0658 -9.62159 496.005 -0.946771 0.0838533 -0.310794
-9.96469 -9.52822 495.843 -0.914491 0.176512 -0.364074
-9.87477 -9.43956 495.67 -0.912936 0.21106 -0.349288
-9.7692 -9.34426 495.513 -0.901345 0.237279 -0.362321
-9.69641 -9.26305 495.324 -0.912858 0.193372 -0.35958
-9.6104 -9.17615 495.148 -0.907924 0.170245 -0.383001
-9.51036 -9.08318 494.985 -0.91767 0.165345 -0.361307
-9.43323 -9.00018 494.801 -0.901916 0.230146 -0.365487
-9.32682 -8.90445 494.644 -0.859455 0.286785 -0.423192
-9.21139 -8.80487 494.495 -0.859083 0.277781 -0.4299
-9.10462 -8.70895 494.338 -0.858115 0.278508 -0.431361
-8.98866 -8.60927 494.191 -0.858083 0.264945 -0.439885
-8.88205 -8.51347 494.034 -0.861668 0.247678 -0.442927
-8.77536 -8.41762 493.877 -0.847796 0.266082 -0.45874
-8.66521 -8.32043 493.724 -0.843004 0.273162 -0.463387
-8.55842 -8.22452 493.567 -0.84104 0.26037 -0.474193
-8.43751 -8.12256 493.423 -0.796269 0.290182 -0.5308
-8.28706 -8.00783 493.307 -0.784199 0.316438 -0.533759
-8.17492 -7.90967 493.155 -0.782238 0.310493 -0.54009
-8.02774 -7.79633 493.036 -0.753537 0.326871 -0.570383
-7.87566 -7.68086 492.921 -0.768393 0.352603 -0.534082
-7.76168 -7.58188 492.77 -0.739275 0.368394 -0.563701
-7.56584 -7.44743 492.696 -0.718575 0.402056 -0.567451
-7.42446 -7.33656 492.57 -0.78838 0.379633 -0.484082
-7.30762 -7.23632 492.423 -0.671275 0.430402 -0.603443
-7.0962 -7.09523 492.361 -0.620793 0.423422 -0.659796
-6.96603 -6.98902 492.226 -0.695647 0.348892 -0.627972
-6.77683 -6.85735 492.145 -0.656047 0.358944 -0.663899
-6.61554 -6.73767 492.037 -0.716499 0.320708 -0.619497
-6.48376 -6.63111 491.904 -0.778254 0.265004 -0.569292
-6.34934 -6.52307 491.772 -0.685062 0.319457 -0.654704
-6.15465 -6.38895 491.695 -0.600988 0.358762 -0.714215
-5.98492 -6.26565 491.595 -0.562589 0.410449 -0.717653
-5.7578 -6.11744 491.547 -0.627596 0.433155 -0.646916
-5.61546 -6.00594 491.422 -0.651302 0.456168 -0.606396
-5.40701 -5.86573 491.357 -0.557192 0.49062 -0.669947
-5.22217 -5.73604 491.27 -0.543138 0.431165 -0.720485
-5.01131 -5.59427 491.209 -0.5092 0.424357 -0.748756
-4.79242 -5.44962 491.152 -0.481881 0.456722 -0.747794
-4.56259 -5.2998 491.107 -0.425737 0.47386 -0.770847
-4.29429 -5.13356 491.095 -0.426344 0.493301 -0.758212
-4.09135 -4.99557 491.024 -0.50552 0.457515 -0.731526
-3.87837 -4.85323 490.962 -0.522693 0.433768 -0.733919
-3.6631 -4.70975 490.902 -0.474315 0.473356 -0.742267
-3.42114 -4.55465 490.866 -0.405179 0.481155 -0.77738
-3.1794 -4.39973 490.829 -0.411583 0.456091 -0.789038
-2.95821 -4.2535 490.775 -0.356206 0.483676 -0.799484
-2.63818 -4.06419 490.808 -0.311688 0.522582 -0.793574
-2.39015 -3.90623 490.777 -0.320288 0.503644 -0.802345
-2.08834 -3.72482 490.794 -0.307228 0.499031 -0.810296
-1.80492 -3.55134 490.794 -0.311172 0.536622 -0.784353
-1.50018 -3.36849 490.812 -0.233148 0.542629 -0.806967
-1.14152 -3.162 490.879 -0.211739 0.521765 -0.826395
-0.825737 -2.97419 490.908 -0.216926 0.548479 -0.807536
-0.470392 -2.76901 490.971 -0.180823 0.571922 -0.80013
-0.125685 -2.56842 491.024 -0.140656 0.557557 -0.818136
0.280776 -2.34071 491.132 -0.0954115 0.534927 -0.839494
0.658337 -2.12557 491.214 -0.0622521 0.530697 -0.845272
1.06756 -1.89648 491.324 -0.0409181 0.524423 -0.850474
-10.4643 -11.28 504.583 -0.966846 -0.177778 0.183313
-10.5485 -11.2649 504.24 -0.960642 -0.221423 0.167748
-10.6008 -11.2364 503.928 -0.964167 -0.229599 0.132911
-10.6595 -11.2105 503.61 -0.960052 -0.250357 0.124984
-10.6969 -11.1757 503.313 -0.963985 -0.2401 0.11439
-10.7356 -11.1415 503.015 -0.97252 -0.206117 0.108264
-10.7843 -11.1116 502.707 -0.975487 -0.205768 0.078007
-10.7821 -11.0599 502.449 -0.980674 -0.182411 0.0707418
-10.8424 -11.0351 502.131 -0.979473 -0.181991 0.0866681
-10.8635 -10.9935 501.85 -0.981496 -0.182036 0.0593949
-10.8785 -10.9493 501.576 -0.993071 -0.115911 0.0193275
-10.8743 -10.897 501.32 -0.996221 -0.0861181 -0.0112875
-10.8765 -10.8473 501.058 -0.996516 -0.0813068 -0.0185627
-10.8673 -10.7931 500.807 -0.997862 -0.0579776 -0.0301709
-10.8676 -10.7429 500.547 -0.996728 -0.0644229 -0.0488162
-10.8541 -10.6864 500.301 -0.993841 -0.101103 -0.0453761
-10.8582 -10.6382 500.038 -0.996073 -0.078907 -0.040149
-10.8426 -10.581 499.793 -0.997723 -0.0435786 -0.0514853
-10.8328 -10.5265 499.544 -0.996562 -0.0277767 -0.0780592
-10.822 -10.4715 499.295 -0.991359 -0.0156422 -0.130242
-10.7684 -10.3984 499.088 -0.985809 -0.00799899 -0.16768
-10.7227 -10.3286 498.872 -0.992095 -0.0117105 -0.124939
-10.7285 -10.2808 498.609 -0.985743 0.0222746 -0.166779
-10.6501 -10.1971 498.425 -0.97994 0.0306467 -0.196921
-10.6266 -10.1369 498.189 -0.987716 -0.000584424 -0.156257
-10.583 -10.068 497.972 -0.984728 0.0153226 -0.173422
-10.561 -10.0085 497.735 -0.973831 0.0061063 -0.22719
-10.5018 -9.93304 497.533 -0.935505 0.0728465 -0.345722
-10.402 -9.84008 497.37 -0.96648 0.0754116 -0.245418
-10.3725 -9.7774 497.14 -0.983403 0.0299082 -0.178954
-10.3119 -9.70137 496.939 -0.944661 0.120212 -0.30523
-10.2223 -9.61284 496.766 -0.927949 0.138438 -0.346043
-10.1575 -9.53502 496.57 -0.971602 0.0021438 -0.236611
-10.1301 -9.47325 496.339 -0.976023 -0.0027565 -0.217652
-10.0341 -9.38203 496.172 -0.926563 0.170499 -0.335277
-9.94614 -9.29428 495.998 -0.894438 0.244195 -0.374633
-9.84487 -9.20076 495.836 -0.905064 0.206645 -0.371694
-9.7783 -9.12223 495.641 -0.920759 0.175257 -0.34855
-9.68803 -9.03348 495.469 -0.927761 0.166844 -0.3338
-9.61542 -8.95237 495.28 -0.904551 0.21296 -0.369373
-9.51016 -8.85714 495.122 -0.88941 0.244466 -0.386246
-9.40403 -8.76156 494.965 -0.89039 0.267244 -0.368491
-9.30857 -8.67062 494.798 -0.866536 0.280436 -0.412881
-9.20204 -8.57483 494.641 -0.858694 0.241581 -0.451977
-9.09561 -8.47911 494.484 -0.867653 0.224126 -0.443786
-9.00338 -8.38964 494.314 -0.86716 0.213501 -0.449945
-8.89672 -8.29375 494.156 -0.855343 0.218406 -0.469774
