0.635948 -78.1894 467.409 -0.560784 -0.527489 0.638182
0.399073 -78.2209 467.192 -0.579292 -0.515866 0.631113
0.213564 -78.2229 466.987 -0.627729 -0.500618 0.596103
0.0085743 -78.2361 466.777 -0.686169 -0.494229 0.53377
-0.164295 -78.2309 466.574 -0.671819 -0.558802 0.48621
-0.336259 -78.2252 466.372 -0.663482 -0.646843 0.376012
-0.454657 -78.1814 466.185 -0.63948 -0.735139 0.225027
-0.621316 -78.1793 465.98 -0.501283 -0.857274 0.117455
-0.686397 -78.1037 465.804 -0.507794 -0.860629 -0.0382537
-0.760445 -78.0388 465.623 -0.505912 -0.856034 -0.10611
-0.867226 -77.997 465.434 -0.370082 -0.91809 -0.141953
-0.982219 -77.9692 465.237 -0.290714 -0.927214 -0.236134
-1.05509 -77.9066 465.055 -0.258851 -0.893515 -0.366915
-1.08529 -77.8194 464.882 -0.181006 -0.845847 -0.501777
-1.10422 -77.7252 464.711 -0.0632368 -0.84341 -0.533536
-1.12318 -77.6313 464.54 0.00822575 -0.858914 -0.512054
-1.1342 -77.5326 464.37 0.032937 -0.826081 -0.562588
-1.1257 -77.4228 464.205 0.0697149 -0.804815 -0.589417
-1.09897 -77.3022 464.043 0.106019 -0.803503 -0.585784
-1.05299 -77.1704 463.884 0.117691 -0.784861 -0.608393
-0.991188 -77.0293 463.729 0.119132 -0.784079 -0.609121
-0.98918 -76.9231 463.562 0.137757 -0.810488 -0.569326
-0.98444 -76.8152 463.395 0.155132 -0.799587 -0.580168
-0.917204 -76.6709 463.241 0.147994 -0.781775 -0.605744
-0.827992 -76.5136 463.09 0.128188 -0.791131 -0.598063
-0.833363 -76.4117 462.922 0.135308 -0.810018 -0.57058
-0.803828 -76.2892 462.76 0.147222 -0.808864 -0.569267
-0.794706 -76.1788 462.594 0.135397 -0.787365 -0.601435
-0.735086 -76.0387 462.438 0.142761 -0.815955 -0.560212
-0.732952 -75.9322 462.271 0.140705 -0.8369 -0.528961
-0.693298 -75.8038 462.11 0.110622 -0.801005 -0.588348
-0.678999 -75.6902 461.945 0.121638 -0.795531 -0.593577
-0.679791 -75.5855 461.777 0.147699 -0.813928 -0.561878
-0.643697 -75.4591 461.616 0.143312 -0.821414 -0.552034
-0.619863 -75.3398 461.453 0.123806 -0.822329 -0.55538
-0.59164 -75.218 461.291 0.0903365 -0.821278 -0.563331
-0.591815 -75.1128 461.123 0.0801302 -0.812742 -0.577087
-0.546713 -74.981 460.963 0.104263 -0.82366 -0.557417
-0.541395 -74.8726 460.796 0.109835 -0.828025 -0.549829
-0.515583 -74.7521 460.633 0.101178 -0.791786 -0.60236
-0.488 -74.6306 460.47 0.0993813 -0.777073 -0.621515
-0.420952 -74.4857 460.315 0.108383 -0.808523 -0.578397
-0.439421 -74.391 460.143 0.126991 -0.856679 -0.499975
-0.480149 -74.3099 459.967 0.112637 -0.853644 -0.508531
-0.49856 -74.2153 459.796 0.0897809 -0.811276 -0.577729
-0.445684 -74.0788 459.637 0.0983454 -0.799397 -0.592699
-0.393994 -73.9426 459.478 0.11346 -0.818311 -0.563466
-0.372257 -73.8251 459.315 0.116285 -0.803601 -0.583698
-0.307375 -73.681 459.158 0.117943 -0.811183 -0.572776
-0.325324 -73.5859 458.987 0.121934 -0.829338 -0.545281
-0.337553 -73.4884 458.817 0.135839 -0.821501 -0.553791
-0.313994 -73.3685 458.652 0.13718 -0.818653 -0.557664
-0.289807 -73.2488 458.488 0.117529 -0.827041 -0.549718
-0.299686 -73.1491 458.318 0.11396 -0.839584 -0.531142
-0.278146 -73.0309 458.153 0.110785 -0.824213 -0.555337
-0.229045 -72.8962 457.993 0.0865925 -0.800448 -0.593114
-0.229464 -72.7911 457.826 0.101056 -0.812842 -0.573652
-0.22877 -72.6851 457.656 0.119441 -0.847608 -0.517005
-0.236448 -72.5841 457.487 0.0947057 -0.83027 -0.549256
-0.220956 -72.4694 457.321 0.0999808 -0.827096 -0.553097
-0.218403 -72.3618 457.152 0.113851 -0.844524 -0.523275
-0.19368 -72.2426 456.99 0.104165 -0.8198 -0.563096
-0.204408 -72.1428 456.818 0.118724 -0.818957 -0.56144
-0.19165 -72.0297 456.652 0.133112 -0.826284 -0.547298
-0.137994 -71.8916 456.492 0.128587 -0.822756 -0.553658
-0.140894 -71.7888 456.324 0.128971 -0.838493 -0.52943
-0.158278 -71.693 456.152 0.106097 -0.81252 -0.573197
-0.0602706 -71.529 456 0.094223 -0.812431 -0.575393
-0.0778646 -71.4338 455.829 0.0984423 -0.841354 -0.531444
-0.0959328 -71.3391 455.657 0.0911791 -0.8305 -0.549505
-0.106874 -71.2398 455.486 0.100254 -0.83767 -0.536897
-0.0933965 -71.1261 455.319 0.1059 -0.829686 -0.548094
-0.0666078 -71.0045 455.155 0.111939 -0.831648 -0.543903
-0.0669879 -70.899 454.986 0.11692 -0.824721 -0.553322
-0.061009 -70.7889 454.816 0.129109 -0.811925 -0.569305
-0.0270908 -70.6646 454.657 0.131577 -0.834867 -0.534494
-0.0185712 -70.5529 454.488 0.105521 -0.848625 -0.518363
-0.0314418 -70.4542 454.315 0.090884 -0.844236 -0.52821
-0.00764231 -70.3355 454.153 0.0899296 -0.841922 -0.532053
0.00354285 -70.2224 453.984 0.0875763 -0.838675 -0.537546
-0.000216166 -70.1189 453.815 0.0911849 -0.827013 -0.554738
-0.0151093 -70.0217 453.642 0.100941 -0.832924 -0.544103
-0.00519181 -69.9107 453.477 0.105887 -0.847757 -0.519708
-0.0211488 -69.8141 453.304 0.10138 -0.820681 -0.562321
-0.0075175 -69.7002 453.137 0.112737 -0.80513 -0.582286
0.0419689 -69.5646 452.976 0.127683 -0.82192 -0.555108
0.0879163 -69.431 452.814 0.112475 -0.837166 -0.53526
0.069757 -69.3363 452.642 0.0994837 -0.845748 -0.524227
0.0515867 -69.2418 452.471 0.101476 -0.846023 -0.5234
0.0579839 -69.131 452.3 0.100262 -0.850687 -0.516023
0.0769687 -69.015 452.137 0.093977 -0.843101 -0.529479
0.108179 -68.8898 451.971 0.0764107 -0.827347 -0.556469
0.099666 -68.7889 451.801 0.0828706 -0.829406 -0.552465
0.0846417 -68.6921 451.629 0.0999002 -0.842194 -0.529838
0.100132 -68.5769 451.462 0.0979825 -0.850812 -0.516255
0.0815135 -68.4812 451.289 0.0964352 -0.836668 -0.539154
0.0893988 -68.373 451.125 0.120918 -0.831911 -0.541574
0.0950461 -68.2622 450.953 0.146384 -0.852603 -0.501638
0.0765382 -68.1667 450.78 0.136828 -0.857003 -0.496814
0.0734321 -68.0645 450.613 0.0844846 -0.843255 -0.530833
0.0852391 -67.9502 450.443 -0.0146484 -0.800801 -0.598751
0.152613 -67.8034 450.284 -0.143219 -0.662884 -0.734896
0.324928 -67.5822 450.153 -0.214981 -0.530285 -0.82011
0.441838 -67.408 449.999 -0.23899 -0.47014 -0.849619
0.580199 -67.2263 449.844 -0.301538 -0.387893 -0.870984
0.771733 -66.9921 449.711 -0.394842 -0.296556 -0.869571
1.01655 -66.7497 449.574 -0.499746 -0.100979 -0.860266
1.23581 -66.5104 449.439 -0.521641 0.0973988 -0.847587
1.53251 -66.2178 449.318 -0.531433 0.1004 -0.84113
1.74686 -65.9876 449.179 -0.561295 0.137811 -0.816061
1.00291 -77.9877 467.93 -0.533075 -0.586701 0.609601
0.792866 -78.0035 467.719 -0.546553 -0.578841 0.605164
0.573003 -78.0252 467.506 -0.54403 -0.570722 0.615067
0.360681 -78.0426 467.294 -0.565832 -0.549824 0.614433
0.145672 -78.0616 467.083 -0.610945 -0.52478 0.59275
-0.0285773 -78.0572 466.879 -0.628252 -0.539927 0.560159
-0.205957 -78.0547 466.676 -0.634624 -0.525567 0.566597
-0.413394 -78.0696 466.466 -0.669013 -0.530677 0.520388
-0.575118 -78.0582 466.266 -0.652813 -0.600473 0.461809
-0.747284 -78.0516 466.064 -0.701252 -0.623831 0.34508
-0.844655 -77.9972 465.88 -0.707273 -0.693984 0.134726
-0.969115 -77.9673 465.686 -0.531883 -0.839622 0.110159
-1.09291 -77.9317 465.495 -0.469359 -0.880227 0.0700163
-1.16701 -77.8687 465.314 -0.519907 -0.853883 -0.0240833
-1.23647 -77.7959 465.138 -0.507124 -0.855386 -0.105548
-1.33952 -77.7666 464.94 -0.428915 -0.877414 -0.214886
-1.40368 -77.6991 464.76 -0.379087 -0.867663 -0.321644
-1.45694 -77.6253 464.582 -0.276922 -0.87478 -0.397585
-1.48884 -77.5388 464.409 -0.151101 -0.872946 -0.463825
-1.52875 -77.4572 464.234 -0.0667339 -0.855753 -0.513063
-1.54769 -77.3632 464.063 -0.00743955 -0.825584 -0.56423
-1.54974 -77.2595 463.895 0.0384738 -0.782329 -0.621677
-1.4931 -77.1215 463.739 0.0879436 -0.80343 -0.588869
-1.49931 -77.0202 463.57 0.120002 -0.841486 -0.526784
-1.5016 -76.9165 463.403 0.107015 -0.794686 -0.597513
-1.43125 -76.7705 463.249 0.110207 -0.7449 -0.658011
-1.37591 -76.6331 463.092 0.153461 -0.795307 -0.586461
-1.37737 -76.5289 462.925 0.15915 -0.825295 -0.541812
-1.36252 -76.4152 462.76 0.143397 -0.798642 -0.584473
-1.28758 -76.2663 462.607 0.1488 -0.789064 -0.596018
-1.27287 -76.1526 462.442 0.149246 -0.806261 -0.572423
-1.24604 -76.0318 462.28 0.141623 -0.80779 -0.572204
-1.21501 -75.9085 462.118 0.149335 -0.815927 -0.558535
-1.2279 -75.8109 461.948 0.141419 -0.826351 -0.54511
-1.18817 -75.6825 461.788 0.118787 -0.80615 -0.579665
-1.15606 -75.5585 461.627 0.126075 -0.794641 -0.593844
-1.10661 -75.4243 461.468 0.131966 -0.780063 -0.611626
-1.0218 -75.2691 461.316 0.131515 -0.809839 -0.57172
-1.03974 -75.1747 461.146 0.131175 -0.836811 -0.531546
-1.05725 -75.0797 460.975 0.125447 -0.828054 -0.546434
-1.05064 -74.9706 460.808 0.122098 -0.826204 -0.549982
-1.04195 -74.8603 460.642 0.128824 -0.794225 -0.59381
-0.960928 -74.7073 460.489 0.1293 -0.781355 -0.610545
-0.953931 -74.5977 460.322 0.148128 -0.816631 -0.557827
-0.939595 -74.4845 460.158 0.154093 -0.837061 -0.524961
-0.894505 -74.3524 459.998 0.113255 -0.837712 -0.53424
-0.86664 -74.2302 459.834 0.0796671 -0.826389 -0.557436
-0.876222 -74.1314 459.665 0.0898673 -0.814563 -0.573072
-0.886187 -74.0316 459.495 0.114915 -0.826286 -0.551403
-0.903531 -73.9365 459.324 0.117853 -0.803368 -0.583704
-0.856957 -73.8036 459.164 0.136361 -0.810468 -0.56969
-0.856832 -73.6982 458.996 0.151248 -0.846257 -0.510856
-0.856191 -73.5919 458.827 0.12741 -0.824971 -0.550626
-0.818969 -73.4657 458.668 0.107196 -0.789033 -0.604926
-0.745189 -73.316 458.512 0.120172 -0.818452 -0.561868
-0.762553 -73.2203 458.34 0.1128 -0.840302 -0.530254
-0.752196 -73.1097 458.175 0.0908084 -0.800124 -0.592921
-0.705789 -72.9766 458.014 0.111993 -0.815369 -0.568006
-0.719946 -72.8793 457.844 0.119098 -0.825253 -0.552063
-0.655425 -72.7356 457.686 0.115638 -0.822808 -0.556431
-0.654297 -72.6297 457.519 0.106828 -0.837018 -0.536646
-0.646991 -72.5197 457.352 0.0923184 -0.840044 -0.534606
-0.659553 -72.4217 457.181 0.0938377 -0.841574 -0.531928
-0.668113 -72.3214 457.011 0.0928788 -0.8403 -0.534106
-0.663409 -72.213 456.843 0.0892663 -0.838283 -0.537878
-0.6523 -72.1009 456.677 0.0920508 -0.8235 -0.559799
-0.669339 -72.0056 456.505 0.102972 -0.819174 -0.564226
-0.631192 -71.8773 456.344 0.1038 -0.818424 -0.565161
-0.575447 -71.7385 456.184 0.0894889 -0.796627 -0.59781
-0.57591 -71.6334 456.017 0.108695 -0.808818 -0.577926
-0.554765 -71.5152 455.851 0.125908 -0.833732 -0.537623
-0.517416 -71.3871 455.688 0.109454 -0.838236 -0.53421
-0.513062 -71.2793 455.522 0.0987332 -0.847162 -0.522081
-0.531165 -71.1843 455.349 0.096843 -0.837431 -0.537894
-0.533413 -71.0799 455.18 0.103452 -0.841042 -0.530987
-0.551155 -70.9851 455.008 0.102301 -0.846845 -0.521909
-0.551111 -70.8773 454.837 0.0863261 -0.807825 -0.583067
-0.487758 -70.7379 454.686 0.0862398 -0.79672 -0.598163
-0.457632 -70.6122 454.518 0.105481 -0.832641 -0.543675
-0.449766 -70.5018 454.351 0.113058 -0.841739 -0.527914
-0.468044 -70.4066 454.179 0.116883 -0.838 -0.533005
-0.473725 -70.3058 454.011 0.130713 -0.842433 -0.522705
-0.480572 -70.2033 453.839 0.122104 -0.834995 -0.536539
-0.433234 -70.0692 453.678 0.0919966 -0.835106 -0.542342
-0.448573 -69.9726 453.506 0.0855459 -0.852833 -0.515129
-0.452503 -69.8694 453.338 0.0892884 -0.841555 -0.53274
-0.437844 -69.7548 453.17 0.089768 -0.820711 -0.564248
-0.445866 -69.6539 453 0.0937737 -0.796669 -0.597097
-0.394812 -69.5175 452.839 0.116522 -0.818201 -0.563001
-0.399912 -69.4148 452.67 0.121639 -0.845831 -0.519397
-0.372767 -69.2924 452.504 0.0996903 -0.843276 -0.528155
-0.385679 -69.1951 452.334 0.0984048 -0.845448 -0.524913
-0.404044 -69.1 452.162 0.106056 -0.826381 -0.553034
-0.385745 -68.9832 451.995 0.123519 -0.83191 -0.540989
-0.395724 -68.8825 451.822 0.129442 -0.84203 -0.52367
-0.367718 -68.7616 451.662 0.122656 -0.835164 -0.53615
-0.375178 -68.6593 451.489 0.13428 -0.849102 -0.510877
-0.393986 -68.5649 451.317 0.131306 -0.863458 -0.487031
-0.440924 -68.4882 451.141 0.120207 -0.858265 -0.49893
-0.459583 -68.393 450.968 0.11093 -0.843565 -0.525445
-0.431467 -68.2701 450.803 0.0347176 -0.79659 -0.603523
-0.312522 -68.0922 450.653 -0.0851103 -0.714094 -0.694857
-0.193821 -67.9043 450.512 -0.202226 -0.627717 -0.751715
-0.0729775 -67.7184 450.369 -0.307445 -0.503509 -0.807438
0.0051036 -67.5787 450.199 -0.315582 -0.433174 -0.844256
0.18568 -67.3618 450.059 -0.358524 -0.309552 -0.880703
0.444211 -67.0918 449.933 -0.49111 -0.103457 -0.864932
0.65208 -66.8716 449.791 -0.540278 0.01913 -0.841269
0.890588 -66.6213 449.659 -0.522592 0.0522731 -0.850979
1.15491 -66.3541 449.531 -0.547615 0.142207 -0.824557
1.42136 -66.0859 449.403 -0.604837 0.254635 -0.754541
1.73534 -65.7888 449.282 -0.639853 0.346529 -0.685934
0.920414 -77.8345 468.023 -0.576085 -0.510767 0.638156
0.72498 -77.842 467.815 -0.577173 -0.529475 0.621714
0.501579 -77.8658 467.601 -0.571535 -0.539856 0.617983
0.308064 -77.8724 467.394 -0.583082 -0.537094 0.609544
0.102415 -77.8861 467.184 -0.594678 -0.534625 0.600444
-0.106494 -77.9018 466.973 -0.638804 -0.535228 0.552685
-0.258921 -77.8849 466.775 -0.602858 -0.573019 0.555168
-0.468055 -77.901 466.564 -0.621569 -0.543961 0.5637
-0.627474 -77.8883 466.364 -0.682711 -0.493191 0.539137
-0.796168 -77.881 466.163 -0.717188 -0.478553 0.506585
-0.964966 -77.8739 465.961 -0.743728 -0.52215 0.417407
-1.09187 -77.8425 465.768 -0.693535 -0.63446 0.341276
-1.21536 -77.8079 465.577 -0.709769 -0.664314 0.23434
-1.31608 -77.7514 465.395 -0.680593 -0.71978 0.136784
-1.44856 -77.7302 465.197 -0.555973 -0.828626 0.0653621
-1.51485 -77.6616 465.018 -0.535782 -0.842633 -0.0539153
-1.58012 -77.5866 464.843 -0.515248 -0.851693 -0.0955953
-1.6799 -77.552 464.649 -0.414027 -0.900276 -0.134478
-1.78408 -77.5086 464.46 -0.359135 -0.902552 -0.237532
-1.84177 -77.4393 464.28 -0.330354 -0.886641 -0.323626
-1.89377 -77.3648 464.103 -0.273761 -0.866689 -0.41702
-1.91845 -77.2744 463.931 -0.189078 -0.826678 -0.529956
-1.93727 -77.1804 463.76 -0.0771151 -0.834246 -0.545974
-1.94662 -77.081 463.591 -0.000296497 -0.842726 -0.538344
-1.91815 -76.9594 463.429 0.0205784 -0.812944 -0.581979
-1.9299 -76.8614 463.26 0.0545846 -0.795485 -0.60351
-1.91162 -76.7458 463.096 0.0994808 -0.793778 -0.600017
-1.84199 -76.6001 462.942 0.116772 -0.813477 -0.569753
-1.84028 -76.4941 462.776 0.0975566 -0.811342 -0.576374
-1.83947 -76.3887 462.608 0.100652 -0.782457 -0.614517
-1.75607 -76.2349 462.457 0.12311 -0.794886 -0.594139
-1.74107 -76.121 462.293 0.131806 -0.816983 -0.561397
-1.74188 -76.0165 462.125 0.141765 -0.801693 -0.580681
-1.64043 -75.852 461.977 0.136848 -0.801951 -0.581505
-1.65082 -75.753 461.808 0.115263 -0.820044 -0.560572
-1.64699 -75.6457 461.641 0.107314 -0.808298 -0.57891
-1.63113 -75.5313 461.476 0.104398 -0.767679 -0.632273
-1.56398 -75.3868 461.321 0.129844 -0.801073 -0.584314
-1.57657 -75.289 461.152 0.154257 -0.829541 -0.536719
-1.50344 -75.1406 460.997 0.13848 -0.82323 -0.550559
-1.51373 -75.042 460.828 0.127876 -0.844303 -0.520384
-1.53155 -74.9472 460.657 0.113173 -0.799118 -0.590425
-1.47575 -74.8092 460.5 0.122472 -0.797791 -0.590364
-1.4871 -74.7107 460.33 0.127827 -0.819709 -0.558334
-1.43243 -74.5733 460.173 0.113037 -0.782873 -0.611827
-1.37145 -74.4321 460.016 0.115552 -0.800035 -0.588721
-1.37881 -74.3313 459.847 0.127521 -0.838388 -0.529947
-1.38247 -74.2282 459.678 0.137275 -0.839586 -0.525597
-1.36046 -74.11 459.515 0.116016 -0.836742 -0.535166
-1.3407 -73.9931 459.35 0.0781052 -0.829412 -0.553151
-1.34638 -73.8912 459.182 0.0792668 -0.822481 -0.563243
-1.32443 -73.7729 459.017 0.102047 -0.825022 -0.555811
-1.29284 -73.649 458.855 0.10707 -0.809382 -0.57744
-1.26401 -73.5266 458.693 0.101223 -0.797822 -0.594335
-1.2722 -73.4262 458.523 0.113007 -0.80196 -0.586591
-1.19911 -73.2777 458.368 0.13424 -0.823128 -0.55176
-1.21281 -73.1802 458.198 0.128894 -0.822271 -0.554307
-1.19841 -73.0664 458.032 0.137993 -0.820214 -0.555163
-1.18219 -72.9515 457.867 0.127399 -0.821003 -0.556528
-1.18729 -72.8491 457.698 0.115125 -0.807073 -0.579119
-1.14267 -72.7173 457.538 0.133821 -0.816994 -0.560903
-1.12261 -72.6 457.373 0.131848 -0.837908 -0.529647
-1.12981 -72.4989 457.203 0.125627 -0.837967 -0.531065
-1.09194 -72.371 457.042 0.109343 -0.835374 -0.538697
-1.10484 -72.2731 456.872 0.0933193 -0.845573 -0.525641
-1.11343 -72.1729 456.701 0.0987526 -0.838479 -0.535911
-1.08368 -72.0497 456.538 0.0952048 -0.820775 -0.563262
-1.0673 -71.9345 456.373 0.0781169 -0.80624 -0.586409
-1.06848 -71.8298 456.204 0.0949828 -0.818606 -0.566447
-1.0495 -71.713 456.039 0.118276 -0.823485 -0.554873
-1.03347 -71.5979 455.874 0.127669 -0.811502 -0.570233
-1.01442 -71.481 455.708 0.140876 -0.820365 -0.554215
-1.01497 -71.376 455.541 0.138323 -0.843218 -0.519471
-1.01422 -71.27 455.371 0.124225 -0.841865 -0.525197
-0.995424 -71.1532 455.206 0.117383 -0.836845 -0.534707
-0.978628 -71.0376 455.041 0.108797 -0.838639 -0.533711
-0.967058 -70.9252 454.874 0.100286 -0.81083 -0.576626
-0.946135 -70.8072 454.708 0.0997051 -0.811109 -0.576334
-0.964151 -70.7123 454.537 0.113132 -0.838528 -0.532984
-0.973592 -70.6112 454.366 0.1287 -0.845897 -0.517586
-0.970808 -70.5062 454.2 0.132291 -0.852382 -0.50591
-0.988793 -70.4104 454.027 0.121154 -0.834727 -0.537171
-0.936946 -70.2737 453.867 0.0936676 -0.797336 -0.596222
-0.893172 -70.1418 453.706 0.100269 -0.821795 -0.560891
-0.903554 -70.0424 453.535 0.114349 -0.857148 -0.502217
-0.922277 -69.9476 453.363 0.106245 -0.846814 -0.52117
-0.927409 -69.8456 453.194 0.0998259 -0.832825 -0.54446
-0.895685 -69.7207 453.03 0.0942787 -0.820478 -0.563851
-0.899682 -69.6164 452.858 0.115763 -0.815509 -0.567049
-0.860868 -69.4896 452.7 0.144981 -0.818661 -0.555674
-0.854023 -69.3789 452.53 0.145802 -0.831365 -0.536259
-0.866257 -69.2802 452.359 0.146493 -0.854492 -0.49838
-0.875381 -69.1802 452.189 0.152057 -0.841832 -0.517878
-0.879304 -69.0769 452.019 0.148615 -0.833586 -0.532023
-0.866403 -68.9634 451.852 0.146963 -0.833843 -0.532078
-0.881784 -68.867 451.68 0.146047 -0.842511 -0.518504
-0.899405 -68.7718 451.509 0.129566 -0.840949 -0.525374
-0.855477 -68.6396 451.347 0.100354 -0.85554 -0.507917
-0.870283 -68.5427 451.175 0.0170444 -0.858898 -0.511862
-0.822345 -68.4079 451.014 -0.159249 -0.725493 -0.669552
-0.689387 -68.2132 450.874 -0.264565 -0.564459 -0.781915
-0.580811 -68.0456 450.719 -0.28503 -0.494531 -0.821095
-0.464979 -67.8636 450.574 -0.319169 -0.4491 -0.83453
-0.333443 -67.6847 450.419 -0.391613 -0.432793 -0.811991
-0.177043 -67.4839 450.275 -0.481753 -0.227088 -0.846372
0.0619657 -67.2368 450.141 -0.513289 0.0308653 -0.857661
0.328386 -66.9738 450.011 -0.556309 0.0773268 -0.82737
0.525159 -66.7421 449.876 -0.571077 0.06515 -0.818307
0.765816 -66.4872 449.746 -0.568587 0.189229 -0.800563
1.09628 -66.1842 449.627 -0.591056 0.322154 -0.739507
1.48283 -65.8429 449.518 -0.629218 0.402193 -0.665075
1.78904 -65.5501 449.396 -0.670885 0.453429 -0.586785
0.912525 -77.6381 468.132 -0.572636 -0.493001 0.65501
0.683141 -77.6653 467.917 -0.589232 -0.490641 0.641932
0.469698 -77.6835 467.705 -0.595942 -0.48877 0.637147
0.25221 -77.704 467.492 -0.601986 -0.497213 0.624814
0.043013 -77.7198 467.282 -0.595275 -0.521397 0.611386
-0.149082 -77.7259 467.074 -0.636227 -0.497426 0.589731
-0.348174 -77.7361 466.866 -0.654521 -0.499241 0.567768
-0.500926 -77.7195 466.667 -0.670604 -0.484558 0.561689
-0.672713 -77.714 466.465 -0.701605 -0.449953 0.552533
-0.830604 -77.7006 466.265 -0.685743 -0.476556 0.550137
-1.00372 -77.6961 466.063 -0.707556 -0.468334 0.529177
-1.16655 -77.6857 465.862 -0.748985 -0.47509 0.461856
-1.29981 -77.6581 465.668 -0.758006 -0.524725 0.387415
-1.43388 -77.6311 465.474 -0.708876 -0.603788 0.364603
-1.57134 -77.6057 465.279 -0.720081 -0.637466 0.274081
-1.67027 -77.5524 465.096 -0.705513 -0.700489 0.10755
-1.78117 -77.5183 464.903 -0.551181 -0.830681 0.0785417
-1.8919 -77.4738 464.716 -0.504384 -0.862779 0.0347862
-1.95293 -77.4018 464.538 -0.569338 -0.81969 -0.0629517
-2.012 -77.3338 464.358 -0.563052 -0.818921 -0.111094
-2.09689 -77.2748 464.176 -0.506467 -0.844374 -0.174709
-2.1626 -77.2165 463.991 -0.460666 -0.849198 -0.258167
-2.22861 -77.1503 463.811 -0.378494 -0.865032 -0.329335
-2.28285 -77.0771 463.633 -0.290266 -0.844583 -0.449918
-2.30761 -76.9868 463.461 -0.181138 -0.847336 -0.499209
-2.32657 -76.8931 463.291 -0.0976868 -0.855341 -0.508773
-2.3405 -76.7964 463.121 -0.0519408 -0.805167 -0.590769
-2.3247 -76.6823 462.957 0.00971743 -0.781359 -0.624006
-2.25468 -76.5363 462.803 0.0575504 -0.824325 -0.563184
-2.26934 -76.4398 462.633 0.0632786 -0.811084 -0.581497
-2.24646 -76.322 462.471 0.0813802 -0.80022 -0.594159
-2.24517 -76.2161 462.303 0.114368 -0.837494 -0.534344
-2.24812 -76.1129 462.136 0.114155 -0.794412 -0.596555
-2.20503 -75.9827 461.977 0.121904 -0.765622 -0.631635
-2.11319 -75.8237 461.827 0.136483 -0.812012 -0.567458
-2.11233 -75.7183 461.66 0.134261 -0.814869 -0.563882
-2.05445 -75.5792 461.503 0.106662 -0.778309 -0.618755
-2.05542 -75.4749 461.336 0.133239 -0.82292 -0.552314
-2.07 -75.3784 461.166 0.140196 -0.810637 -0.568519
-2.02481 -75.2468 461.007 0.122206 -0.802848 -0.583524
-2.01582 -75.1364 460.841 0.135518 -0.837625 -0.529168
-1.99121 -75.0169 460.678 0.11693 -0.812442 -0.571196
-1.96584 -74.8969 460.515 0.10658 -0.798487 -0.592502
-1.90613 -74.7566 460.359 0.116342 -0.811175 -0.573114
-1.91696 -74.6578 460.189 0.114117 -0.780995 -0.614023
-1.84118 -74.508 460.036 0.126655 -0.804406 -0.580421
-1.85899 -74.4131 459.865 0.134735 -0.849788 -0.509614
-1.8639 -74.3113 459.697 0.10063 -0.814531 -0.571325
-1.79335 -74.1643 459.542 0.085899 -0.791752 -0.604772
-1.75763 -74.038 459.38 0.109937 -0.830897 -0.545458
-1.77348 -73.9422 459.21 0.121249 -0.846496 -0.518404
-1.79177 -73.8477 459.038 0.121687 -0.834404 -0.537552
-1.80629 -73.7512 458.868 0.105628 -0.804979 -0.583824
-1.74014 -73.6067 458.712 0.101743 -0.812922 -0.573416
-1.73834 -73.5008 458.545 0.106074 -0.825115 -0.554918
-1.75253 -73.4038 458.374 0.114438 -0.817144 -0.56496
-1.7228 -73.2809 458.212 0.132124 -0.835235 -0.533784
-1.73846 -73.185 458.041 0.125574 -0.805838 -0.578668
-1.64421 -73.0238 457.89 0.127947 -0.809007 -0.573705
-1.65153 -72.9228 457.721 0.128014 -0.828987 -0.54442
-1.64767 -72.8153 457.553 0.121004 -0.807722 -0.577013
-1.61261 -72.6891 457.392 0.121693 -0.830696 -0.543263
-1.6278 -72.5928 457.221 0.108661 -0.818981 -0.563438
-1.57159 -72.4536 457.062 0.115488 -0.812429 -0.571508
-1.56332 -72.3445 456.897 0.131468 -0.849625 -0.510738
-1.58192 -72.2495 456.725 0.128418 -0.8367 -0.532393
-1.57239 -72.1385 456.558 0.11771 -0.803552 -0.58348
-1.51193 -71.9971 456.401 0.106313 -0.823463 -0.557321
-1.53013 -71.9022 456.229 0.103718 -0.846886 -0.521561
-1.54108 -71.8054 456.061 0.116172 -0.840206 -0.529678
-1.55958 -71.7094 455.887 0.126813 -0.827035 -0.54766
-1.53262 -71.5879 455.724 0.127042 -0.809621 -0.57304
-1.4813 -71.4518 455.564 0.126905 -0.826463 -0.548502
-1.48766 -71.35 455.394 0.129132 -0.834307 -0.535963
-1.48111 -71.2411 455.229 0.129533 -0.824829 -0.550344
-1.47414 -71.1312 455.061 0.129705 -0.834379 -0.535714
-1.48939 -71.035 454.889 0.117564 -0.809395 -0.575377
-1.40673 -70.8799 454.735 0.120742 -0.819478 -0.560247
-1.42448 -70.7844 454.563 0.123592 -0.854547 -0.504454
-1.42432 -70.6802 454.396 0.105402 -0.851128 -0.514267
-1.44173 -70.5837 454.222 0.0930734 -0.848577 -0.52082
-1.42203 -70.4678 454.06 0.073381 -0.812138 -0.578832
-1.3828 -70.338 453.896 0.0858048 -0.797817 -0.596763
-1.38479 -70.2339 453.728 0.123109 -0.82682 -0.548829
-1.37064 -70.1199 453.561 0.141367 -0.847264 -0.512014
-1.38308 -70.0215 453.391 0.128976 -0.841082 -0.525306
-1.3496 -69.896 453.228 0.110862 -0.829095 -0.548006
-1.36829 -69.8012 453.056 0.125922 -0.84704 -0.516398
-1.39558 -69.7125 452.882 0.140393 -0.851194 -0.505726
-1.44263 -69.6354 452.706 0.153499 -0.843385 -0.514917
-1.46108 -69.5413 452.535 0.132281 -0.825247 -0.549062
-1.41096 -69.4052 452.374 0.120608 -0.831845 -0.541745
-1.42786 -69.3096 452.202 0.138895 -0.841971 -0.521338
-1.40525 -69.1905 452.037 0.12989 -0.832954 -0.53788
-1.41169 -69.0888 451.867 0.114229 -0.832311 -0.542411
-1.37188 -68.9591 451.705 0.0655622 -0.825681 -0.560315
-1.32289 -68.8238 451.544 -0.0345749 -0.790856 -0.611025
-1.27178 -68.6871 451.384 -0.149888 -0.721589 -0.675902
-1.15267 -68.4992 451.243 -0.221713 -0.649118 -0.72766
-1.0243 -68.3148 451.096 -0.308907 -0.560204 -0.768601
-0.969894 -68.1835 450.929 -0.367219 -0.476542 -0.798785
-0.829504 -67.9932 450.782 -0.418794 -0.359735 -0.833788
-0.665147 -67.7826 450.642 -0.486905 -0.234588 -0.841363
-0.457951 -67.5593 450.501 -0.564396 -0.135743 -0.814267
-0.300456 -67.358 450.357 -0.595648 0.0549104 -0.801367
-0.0316917 -67.0897 450.231 -0.551226 0.137749 -0.822907
0.22406 -66.8207 450.106 -0.579025 0.112964 -0.807446
0.435819 -66.5925 449.967 -0.600942 0.197467 -0.774516
0.793829 -66.2688 449.854 -0.579223 0.328858 -0.745891
1.15991 -65.9398 449.743 -0.579981 0.396694 -0.711516
1.51937 -65.6147 449.63 -0.593922 0.412835 -0.690525
1.89542 -65.2793 449.519 -0.636083 0.436237 -0.636471
0.84864 -77.4741 468.229 -0.54227 -0.554141 0.631563
0.646854 -77.4854 468.02 -0.549368 -0.572665 0.608482
0.430214 -77.5054 467.807 -0.550195 -0.570272 0.60998
0.21643 -77.5239 467.595 -0.573949 -0.527089 0.626706
0.00028015 -77.5439 467.383 -0.621785 -0.482895 0.6166
-0.178474 -77.5423 467.178 -0.649728 -0.454543 0.609298
-0.36956 -77.5479 466.972 -0.686501 -0.433969 0.583426
-0.527275 -77.5342 466.772 -0.696569 -0.457608 0.552618
-0.707706 -77.5338 466.567 -0.675802 -0.482226 0.55745
-0.881768 -77.5298 466.364 -0.682563 -0.485826 0.545968
-1.04417 -77.5191 466.164 -0.682677 -0.495763 0.536816
-1.20453 -77.5073 465.964 -0.71964 -0.466484 0.514305
-1.35727 -77.4912 465.766 -0.74778 -0.457755 0.480921
-1.49786 -77.468 465.57 -0.743432 -0.482002 0.463663
-1.63673 -77.4439 465.375 -0.743738 -0.510059 0.43208
-1.7909 -77.4288 465.177 -0.75292 -0.540227 0.375855
-1.90664 -77.3908 464.987 -0.739321 -0.597854 0.309799
-2.0145 -77.3493 464.798 -0.763644 -0.617075 0.189911
-2.09552 -77.2861 464.618 -0.731701 -0.676766 0.0812491
-2.20172 -77.242 464.43 -0.615187 -0.788204 0.016722
-2.27108 -77.1809 464.248 -0.592999 -0.804369 -0.0366373
-2.34189 -77.1104 464.071 -0.613656 -0.788447 -0.0421525
-2.41269 -77.0524 463.886 -0.583538 -0.808183 -0.0795252
-2.48753 -76.9885 463.706 -0.539661 -0.824005 -0.172575
-2.55296 -76.9247 463.525 -0.494978 -0.827282 -0.265709
-2.60241 -76.8541 463.345 -0.433759 -0.839787 -0.326513
-2.65012 -76.7774 463.168 -0.348551 -0.83708 -0.421674
-2.67715 -76.6884 462.996 -0.250489 -0.797709 -0.548558
-2.69579 -76.5947 462.826 -0.127661 -0.825302 -0.550072
-2.70151 -76.4931 462.657 -0.0512919 -0.835418 -0.547216
-2.6801 -76.3758 462.494 -0.0183641 -0.834672 -0.550441
-2.69673 -76.2806 462.324 0.019104 -0.856092 -0.51647
-2.70222 -76.179 462.156 0.0259706 -0.814319 -0.579837
-2.65516 -76.0465 461.998 0.0521931 -0.766034 -0.640677
-2.63116 -75.9275 461.835 0.116276 -0.808537 -0.576843
-2.64928 -75.8331 461.665 0.143914 -0.828863 -0.540625
-2.65916 -75.7345 461.496 0.111349 -0.80284 -0.585704
-2.61926 -75.6059 461.336 0.123104 -0.793082 -0.596546
-2.53526 -75.4515 461.185 0.13401 -0.787956 -0.600972
-2.48837 -75.3189 461.026 0.1314 -0.810251 -0.571163
-2.49693 -75.219 460.858 0.142647 -0.820258 -0.55392
-2.46297 -75.094 460.696 0.140761 -0.802191 -0.580238
-2.42962 -74.9694 460.535 0.14592 -0.806932 -0.572336
-2.44658 -74.8744 460.365 0.15602 -0.814893 -0.558218
-2.40497 -74.7448 460.205 0.146477 -0.791813 -0.592939
-2.3621 -74.6145 460.046 0.15322 -0.800459 -0.579473
-2.34164 -74.4973 459.882 0.158285 -0.816027 -0.555919
-2.27026 -74.3501 459.728 0.103862 -0.779791 -0.617364
-2.28756 -74.2549 459.557 0.120882 -0.794045 -0.595719
-2.28655 -74.15 459.39 0.165786 -0.834358 -0.525701
-2.30298 -74.0542 459.219 0.160307 -0.845114 -0.509985
-2.28296 -73.9373 459.055 0.126859 -0.82226 -0.554792
-2.21339 -73.7909 458.9 0.100279 -0.797283 -0.595217
-2.20096 -73.6785 458.735 0.122068 -0.81432 -0.567435
-2.19902 -73.5722 458.567 0.144193 -0.834754 -0.531408
-2.17657 -73.4537 458.404 0.122824 -0.834559 -0.537053
-2.19452 -73.3586 458.232 0.10611 -0.838428 -0.534584
-2.1784 -73.2452 458.069 0.104354 -0.80835 -0.579379
-2.17129 -73.1351 457.901 0.122937 -0.802432 -0.583943
-2.14624 -73.015 457.738 0.14306 -0.825166 -0.546475
-2.1235 -72.8963 457.574 0.122869 -0.80121 -0.585632
-2.06244 -72.7548 457.417 0.116952 -0.817796 -0.5635
-2.07105 -72.6546 457.248 0.118024 -0.829474 -0.545933
-2.06576 -72.5463 457.08 0.126439 -0.82109 -0.556619
-2.07376 -72.4458 456.912 0.144064 -0.848004 -0.510035
-2.08781 -72.3489 456.741 0.138374 -0.832289 -0.536794
-2.04176 -72.2162 456.581 0.116909 -0.781854 -0.612402
-1.97792 -72.0728 456.424 0.125694 -0.812313 -0.569516
-1.9958 -71.9782 456.253 0.137249 -0.859283 -0.492743
-2.01387 -71.8837 456.082 0.116702 -0.85786 -0.500456
-2.01641 -71.7795 455.912 0.0992281 -0.835147 -0.541002
-1.9989 -71.6646 455.749 0.101897 -0.804026 -0.585798
-1.98043 -71.5478 455.583 0.122245 -0.827116 -0.548575
-1.99842 -71.4524 455.41 0.124199 -0.838495 -0.530567
-1.97382 -71.3338 455.249 0.120155 -0.822382 -0.556103
-1.9537 -71.2158 455.083 0.123985 -0.827164 -0.548112
-1.92065 -71.0906 454.921 0.117864 -0.810171 -0.574222
-1.92458 -70.9876 454.752 0.125427 -0.811304 -0.571012
-1.8937 -70.8636 454.589 0.138158 -0.832615 -0.536343
-1.88411 -70.7518 454.42 0.138839 -0.83419 -0.533714
-1.85938 -70.6329 454.259 0.130168 -0.833117 -0.537561
-1.86367 -70.5295 454.088 0.118244 -0.829948 -0.545164
-1.88096 -70.4342 453.917 0.128175 -0.835346 -0.534573
-1.88441 -70.331 453.748 0.14407 -0.841656 -0.520441
-1.90274 -70.2351 453.575 0.150034 -0.832752 -0.532929
-1.86886 -70.112 453.417 0.150822 -0.820452 -0.551463
-1.86515 -70.0031 453.246 0.160309 -0.836799 -0.523516
-1.88389 -69.9077 453.073 0.16671 -0.856921 -0.487745
-1.89397 -69.8103 452.905 0.151915 -0.867932 -0.47288
-1.91269 -69.7153 452.732 0.123493 -0.859243 -0.496439
-1.88792 -69.5949 452.568 0.0664896 -0.821946 -0.565672
-1.87788 -69.4833 452.401 0.0351478 -0.819502 -0.571997
-1.84872 -69.3602 452.237 0.0216458 -0.840026 -0.542114
-1.86397 -69.2639 452.066 -0.0608827 -0.80557 -0.589364
-1.77742 -69.106 451.912 -0.154322 -0.731377 -0.664283
-1.70615 -68.9547 451.757 -0.220179 -0.644126 -0.732546
-1.57829 -68.7623 451.618 -0.263527 -0.600108 -0.755264
-1.4787 -68.5938 451.468 -0.341048 -0.565158 -0.751188
-1.42041 -68.4621 451.3 -0.417083 -0.437115 -0.796851
-1.28959 -68.2824 451.148 -0.438213 -0.402847 -0.803545
-1.13305 -68.0814 451.005 -0.515423 -0.28399 -0.80851
-0.954124 -67.8676 450.865 -0.580447 -0.0997673 -0.808164
-0.785981 -67.6597 450.723 -0.605388 0.00796215 -0.795891
-0.579687 -67.4286 450.587 -0.612027 0.0608896 -0.788489
-0.348107 -67.1821 450.455 -0.61374 0.107308 -0.782182
-0.153248 -66.9568 450.317 -0.568713 0.165045 -0.805808
0.154383 -66.6645 450.197 -0.599013 0.222204 -0.769291
0.425257 -66.3937 450.071 -0.615997 0.336711 -0.712161
0.776607 -66.0736 449.957 -0.56281 0.367461 -0.740417
1.14262 -65.7445 449.845 -0.564213 0.389842 -0.727796
1.54387 -65.3937 449.739 -0.565112 0.398517 -0.72238
1.92087 -65.0574 449.628 -0.574084 0.393503 -0.718041
0.79639 -77.3032 468.329 -0.54159 -0.532608 0.650391
0.54531 -77.3432 468.109 -0.569496 -0.536478 0.622788
0.35671 -77.347 467.902 -0.586893 -0.54911 0.595008
0.16886 -77.3506 467.695 -0.587142 -0.544426 0.599053
-0.0238073 -77.357 467.488 -0.612946 -0.531797 0.58437
-0.205261 -77.357 467.283 -0.632424 -0.508716 0.584164
-0.404287 -77.3673 467.074 -0.652615 -0.4783 0.587642
-0.591511 -77.3709 466.868 -0.678606 -0.475014 0.560228
-0.751126 -77.3584 466.668 -0.65924 -0.512799 0.549945
-0.928341 -77.3563 466.465 -0.660186 -0.523108 0.538992
-1.09451 -77.3479 466.263 -0.684111 -0.517036 0.514457
-1.24377 -77.3296 466.066 -0.713017 -0.479791 0.511281
-1.39349 -77.3118 465.868 -0.740584 -0.439525 0.508284
-1.53769 -77.2908 465.671 -0.737175 -0.453043 0.501323
-1.6982 -77.2793 465.472 -0.738373 -0.472443 0.481251
-1.81217 -77.2408 465.282 -0.756788 -0.455871 0.468459
-1.97191 -77.2291 465.082 -0.787335 -0.446756 0.424867
-2.07828 -77.1863 464.894 -0.801395 -0.484078 0.351332
-2.21681 -77.1618 464.699 -0.777793 -0.540257 0.321185
-2.32238 -77.1191 464.511 -0.798199 -0.559306 0.223731
-2.39581 -77.0543 464.331 -0.809706 -0.576802 0.108051
-2.46673 -76.9846 464.154 -0.73858 -0.665851 0.105557
-2.57279 -76.9453 463.964 -0.664774 -0.744217 0.0649307
-2.64861 -76.8808 463.784 -0.641256 -0.766993 -0.0226538
-2.71468 -76.8151 463.604 -0.648182 -0.756941 -0.0830695
-2.76607 -76.7367 463.429 -0.629114 -0.771542 -0.0945459
-2.84636 -76.6888 463.24 -0.588845 -0.791744 -0.162489
-2.89271 -76.6093 463.065 -0.533652 -0.801446 -0.269999
-2.94603 -76.5408 462.885 -0.486209 -0.808189 -0.332312
-2.97793 -76.4549 462.712 -0.405291 -0.8068 -0.429898
-3.01263 -76.3709 462.538 -0.287701 -0.842075 -0.456221
-3.03723 -76.2803 462.366 -0.197803 -0.863791 -0.463399
-3.05647 -76.1868 462.195 -0.146329 -0.85066 -0.50494
-3.10439 -76.1103 462.019 -0.0734793 -0.84283 -0.53314
-3.12312 -76.0165 461.848 -0.00323121 -0.846691 -0.532075
-3.10961 -75.9037 461.684 0.0154518 -0.841553 -0.539954
-3.08141 -75.7824 461.522 0.0165906 -0.829661 -0.558021
-3.09617 -75.6861 461.352 0.0235996 -0.77688 -0.629206
-3.0341 -75.5448 461.197 0.0648228 -0.772056 -0.632241
-3.0329 -75.4392 461.03 0.114724 -0.824112 -0.554687
-3.01968 -75.3266 460.866 0.120824 -0.824998 -0.552069
-3.00934 -75.2156 460.7 0.119673 -0.808919 -0.575612
-2.98877 -75.0986 460.537 0.134905 -0.819939 -0.556328
-2.96366 -74.9789 460.375 0.134237 -0.809912 -0.570984
-2.91971 -74.848 460.215 0.133849 -0.799238 -0.585921
-2.9221 -74.7445 460.048 0.137593 -0.803155 -0.579664
-2.86912 -74.6082 459.89 0.135479 -0.785685 -0.60361
-2.8451 -74.489 459.727 0.145315 -0.799535 -0.582775
-2.84734 -74.3855 459.56 0.156172 -0.823037 -0.546096
-2.81129 -74.2587 459.398 0.154819 -0.82424 -0.544664
-2.78866 -74.1411 459.237 0.143007 -0.809575 -0.569331
-2.72123 -73.9957 459.081 0.131441 -0.795023 -0.592166
-2.73735 -73.9002 458.91 0.146458 -0.819352 -0.554268
-2.74203 -73.7981 458.742 0.164183 -0.833451 -0.527639
-2.74392 -73.6941 458.574 0.157016 -0.806278 -0.570317
-2.6638 -73.5415 458.421 0.147532 -0.81114 -0.565939
-2.66055 -73.4345 458.254 0.142118 -0.841177 -0.52175
-2.67038 -73.3353 458.085 0.134523 -0.833109 -0.536501
-2.66224 -73.2254 457.919 0.132012 -0.822581 -0.553112
-2.6468 -73.1111 457.754 0.133396 -0.805921 -0.576799
-2.60331 -72.9801 457.594 0.143917 -0.788041 -0.598564
-2.56745 -72.8536 457.432 0.155444 -0.813442 -0.560491
-2.57755 -72.7544 457.263 0.154843 -0.838783 -0.521984
-2.57005 -72.6449 457.097 0.146991 -0.833873 -0.532024
-2.55989 -72.5336 456.931 0.143943 -0.845725 -0.513837
-2.57218 -72.4358 456.761 0.124534 -0.820754 -0.557543
-2.52878 -72.3048 456.601 0.112925 -0.783851 -0.610594
-2.50902 -72.1878 456.436 0.141078 -0.811321 -0.567323
-2.48547 -72.0685 456.272 0.155309 -0.833057 -0.530939
-2.45899 -71.9474 456.109 0.14034 -0.841186 -0.522218
-2.47113 -71.8495 455.939 0.126325 -0.844887 -0.519816
-2.48776 -71.7542 455.768 0.123516 -0.82306 -0.554361
-2.45154 -71.6273 455.606 0.13475 -0.824944 -0.548917
-2.43971 -71.515 455.44 0.143184 -0.836369 -0.529137
-2.45065 -71.4163 455.27 0.134478 -0.824945 -0.548981
-2.43629 -71.3026 455.105 0.13447 -0.823909 -0.550538
-2.45264 -71.2068 454.934 0.141958 -0.818664 -0.556451
-2.39971 -71.0699 454.775 0.142178 -0.820228 -0.554086
-2.41703 -70.975 454.603 0.147884 -0.832518 -0.533896
-2.42086 -70.8721 454.436 0.154787 -0.821555 -0.548714
-2.39949 -70.7539 454.27 0.162298 -0.815907 -0.554937
-2.37086 -70.6313 454.107 0.163338 -0.836103 -0.523692
-2.37717 -70.5298 453.938 0.15705 -0.849618 -0.503472
-2.3939 -70.4345 453.767 0.151668 -0.851553 -0.501851
-2.40207 -70.3341 453.597 0.129534 -0.840784 -0.525646
-2.41142 -70.2343 453.428 0.122753 -0.830359 -0.54354
-2.40535 -70.1254 453.26 0.140018 -0.840756 -0.522995
-2.40058 -70.0171 453.092 0.117663 -0.839778 -0.530027
-2.37029 -69.8934 452.929 0.0537122 -0.844863 -0.532279
-2.36731 -69.7862 452.761 -0.0491896 -0.795598 -0.603825
-2.26613 -69.6197 452.61 -0.136942 -0.754554 -0.64179
-2.24086 -69.499 452.446 -0.213142 -0.760242 -0.61368
-2.1916 -69.3594 452.289 -0.274485 -0.69265 -0.667003
-2.06895 -69.1756 452.145 -0.31437 -0.638169 -0.702789
-2.01319 -69.0396 451.982 -0.394384 -0.559186 -0.729227
-1.92455 -68.8823 451.827 -0.445309 -0.465524 -0.764845
-1.84873 -68.7341 451.668 -0.446532 -0.39827 -0.801243
-1.71826 -68.5423 451.525 -0.460144 -0.397139 -0.79407
-1.55925 -68.342 451.382 -0.566182 -0.282243 -0.774452
-1.41778 -68.1528 451.233 -0.63436 -0.100643 -0.766459
-1.25851 -67.9536 451.089 -0.638164 -0.00888298 -0.769849
-1.0804 -67.7382 450.95 -0.639441 0.0603083 -0.766471
-0.85748 -67.4986 450.816 -0.649795 0.113482 -0.751591
-0.662292 -67.2741 450.679 -0.662183 0.174507 -0.72874
-0.453651 -67.0413 450.543 -0.674646 0.218343 -0.705109
-0.219103 -66.7926 450.412 -0.623741 0.31387 -0.715844
0.172009 -66.4486 450.305 -0.62665 0.383607 -0.678347
0.442602 -66.1776 450.179 -0.633618 0.381079 -0.673281
0.764854 -65.8751 450.061 -0.566522 0.395482 -0.722943
1.21987 -65.4915 449.963 -0.579288 0.424395 -0.695927
1.51293 -65.2063 449.84 -0.573555 0.410225 -0.709049
0.984 -77.0988 468.647 -0.543619 -0.541766 0.641068
0.755297 -77.1258 468.431 -0.537913 -0.53047 0.655173
0.53202 -77.1498 468.217 -0.584487 -0.484347 0.650986
0.316275 -77.1695 468.004 -0.629555 -0.460747 0.625598
0.107736 -77.1851 467.793 -0.614585 -0.496496 0.613007
-0.1031 -77.2021 467.582 -0.631143 -0.51858 0.57683
-0.262766 -77.1895 467.381 -0.65572 -0.492129 0.572574
-0.440537 -77.1875 467.177 -0.646213 -0.486975 0.587592
-0.617371 -77.1851 466.973 -0.662784 -0.46413 0.587623
-0.819093 -77.1972 466.764 -0.67758 -0.45184 0.580281
-0.985039 -77.1886 466.563 -0.680825 -0.474044 0.558355
-1.15608 -77.1831 466.36 -0.725906 -0.457337 0.513715
-1.27386 -77.1466 466.169 -0.748121 -0.434392 0.501615
-1.43361 -77.1346 465.969 -0.734619 -0.435228 0.520491
-1.58174 -77.1159 465.772 -0.722087 -0.460843 0.515959
-1.73677 -77.1014 465.573 -0.755278 -0.441098 0.484756
-1.86428 -77.0708 465.38 -0.761323 -0.434086 0.48162
-2.01279 -77.0517 465.184 -0.771702 -0.41426 0.48256
-2.1401 -77.022 464.99 -0.807186 -0.392542 0.440865
-2.25271 -76.9829 464.801 -0.809767 -0.4112 0.418559
-2.36402 -76.9436 464.611 -0.848713 -0.392295 0.354671
-2.47273 -76.9018 464.423 -0.856446 -0.432859 0.281307
-2.57304 -76.8556 464.236 -0.785885 -0.550135 0.282376
-2.6959 -76.8196 464.046 -0.774371 -0.588563 0.232256
-2.76742 -76.7598 463.863 -0.810378 -0.572215 0.125925
-2.84566 -76.6975 463.683 -0.777992 -0.626593 0.0459338
-2.91287 -76.6285 463.505 -0.697954 -0.715474 0.0309388
-2.99527 -76.579 463.317 -0.661885 -0.749456 -0.0149356
-3.05572 -76.5044 463.142 -0.673746 -0.730456 -0.111805
-3.10559 -76.4231 462.969 -0.664734 -0.738053 -0.115786
-3.17416 -76.365 462.784 -0.629203 -0.75907 -0.167083
-3.22332 -76.2878 462.609 -0.559056 -0.79872 -0.222491
-3.2855 -76.2256 462.426 -0.507835 -0.814431 -0.280724
-3.32297 -76.1431 462.252 -0.434026 -0.852699 -0.290732
-3.38216 -76.0732 462.073 -0.406443 -0.857183 -0.316292
-3.40816 -75.9841 461.902 -0.399037 -0.807802 -0.43385
-3.42712 -75.8902 461.731 -0.321688 -0.800274 -0.506041
-3.44572 -75.7964 461.56 -0.212791 -0.830363 -0.514992
-3.44519 -75.6914 461.393 -0.149112 -0.817814 -0.555829
-3.4543 -75.592 461.225 -0.0769329 -0.82065 -0.566229
-3.45694 -75.4888 461.057 -0.014859 -0.834715 -0.550481
-3.43937 -75.3737 460.893 0.00496614 -0.831115 -0.556078
-3.44118 -75.2699 460.726 0.0196009 -0.829433 -0.558262
-3.42615 -75.1563 460.562 0.029565 -0.825224 -0.564031
-3.43159 -75.0544 460.393 0.0468979 -0.813881 -0.579136
-3.41074 -74.9379 460.231 0.0728554 -0.803459 -0.590885
-3.36027 -74.8027 460.072 0.0925536 -0.806692 -0.58368
-3.35646 -74.6959 459.907 0.115358 -0.817305 -0.56454
-3.36304 -74.5942 459.737 0.130532 -0.821925 -0.554437
-3.32192 -74.4662 459.58 0.130678 -0.813546 -0.566627
-3.31461 -74.3564 459.413 0.138371 -0.813292 -0.565163
-3.29792 -74.2416 459.248 0.130986 -0.797974 -0.588286
-3.27472 -74.1229 459.085 0.137245 -0.808547 -0.572203
-3.25039 -74.0036 458.922 0.152275 -0.839242 -0.522002
-3.26098 -73.9049 458.754 0.144694 -0.835043 -0.530817
-3.23372 -73.7838 458.591 0.130698 -0.79081 -0.597944
-3.18593 -73.6504 458.432 0.147474 -0.793217 -0.590811
-3.17219 -73.5373 458.267 0.172963 -0.829983 -0.530294
-3.16314 -73.4269 458.102 0.171891 -0.828902 -0.53233
-3.14931 -73.3137 457.936 0.163871 -0.826623 -0.538369
-3.15533 -73.2123 457.768 0.154409 -0.825366 -0.543074
-3.16932 -73.1156 457.598 0.151307 -0.795959 -0.586137
-3.09735 -72.9677 457.443 0.163657 -0.803262 -0.572701
-3.08461 -72.8551 457.278 0.167237 -0.828339 -0.534683
-3.07056 -72.7416 457.113 0.15683 -0.824857 -0.543153
-3.06103 -72.6309 456.947 0.158162 -0.827233 -0.539139
-3.03612 -72.5109 456.784 0.150125 -0.815351 -0.559165
-3.01795 -72.395 456.619 0.150189 -0.813575 -0.561728
-3.0193 -72.2907 456.451 0.156315 -0.822562 -0.54677
-3.01193 -72.1805 456.283 0.155183 -0.810114 -0.565361
-2.97992 -72.0577 456.125 0.166212 -0.819603 -0.548292
-2.97134 -71.9467 455.957 0.160401 -0.843338 -0.512887
-2.9736 -71.8428 455.788 0.144671 -0.835484 -0.530129
-2.98001 -71.7421 455.62 0.153141 -0.830342 -0.535798
-2.99811 -71.6474 455.448 0.167123 -0.826016 -0.538301
-2.94819 -71.5123 455.289 0.155834 -0.823594 -0.545352
-2.95526 -71.4113 455.12 0.145658 -0.834667 -0.531144
-2.93355 -71.2928 454.955 0.139922 -0.81846 -0.557265
-2.92604 -71.1837 454.79 0.138123 -0.824095 -0.549353
-2.91836 -71.0738 454.622 0.134445 -0.848074 -0.512539
-2.93214 -70.9765 454.453 0.120185 -0.838399 -0.531642
-2.92766 -70.8688 454.285 0.111473 -0.81204 -0.572857
-2.88984 -70.7408 454.124 0.113301 -0.826824 -0.550931
-2.90259 -70.6427 453.952 0.11044 -0.847858 -0.518595
-2.88392 -70.5273 453.79 0.0823268 -0.832473 -0.547915
-2.84241 -70.3965 453.627 0.0446537 -0.840816 -0.539476
-2.85043 -70.296 453.458 -0.0242455 -0.85833 -0.512525
-2.86586 -70.1999 453.287 -0.127871 -0.800582 -0.585421
-2.78705 -70.0431 453.136 -0.176982 -0.709855 -0.68175
-2.68867 -69.8749 452.987 -0.197759 -0.691413 -0.694867
-2.58074 -69.7032 452.838 -0.298456 -0.626803 -0.719751
-2.5205 -69.5586 452.682 -0.378508 -0.573262 -0.726707
-2.422 -69.3893 452.534 -0.427319 -0.619416 -0.658576
-2.39139 -69.2725 452.364 -0.52603 -0.511099 -0.679758
-2.33414 -69.139 452.2 -0.515941 -0.425497 -0.743476
-2.21112 -68.9539 452.054 -0.521944 -0.409228 -0.748403
-2.09848 -68.7871 451.9 -0.596665 -0.326255 -0.733177
-1.97573 -68.6056 451.752 -0.679626 -0.156856 -0.716592
-1.83956 -68.419 451.606 -0.712955 0.0176753 -0.700987
-1.68105 -68.2173 451.463 -0.703815 0.037343 -0.709401
-1.51674 -68.0119 451.321 -0.71372 0.0753978 -0.696361
-1.336 -67.7964 451.182 -0.704483 0.144741 -0.694805
-1.12637 -67.5632 451.047 -0.699545 0.209349 -0.683235
-0.931835 -67.3391 450.91 -0.69465 0.254511 -0.672819
-0.677313 -67.0784 450.782 -0.693966 0.284573 -0.661385
-0.430741 -66.8223 450.652 -0.698243 0.344986 -0.627249
-0.151882 -66.5465 450.528 -0.633183 0.410805 -0.655986
0.209577 -66.2202 450.417 -0.63542 0.399993 -0.660489
0.427233 -65.9814 450.282 -0.634115 0.375206 -0.676106
0.820456 -65.6354 450.175 -0.558564 0.413944 -0.718788
1.22753 -65.2807 450.07 -0.589979 0.426451 -0.685613
1.54764 -64.9789 449.951 -0.604544 0.444629 -0.660933
0.916678 -76.9365 468.743 -0.563919 -0.515908 0.644852
0.716315 -76.9471 468.534 -0.563545 -0.526457 0.6366
0.485643 -76.9754 468.318 -0.575831 -0.519815 0.631039
0.293313 -76.9816 468.11 -0.590618 -0.5052 0.62924
0.0661892 -77.0081 467.895 -0.598327 -0.49736 0.628202
-0.121183 -77.0116 467.688 -0.668343 -0.460771 0.583959
-0.282013 -76.9997 467.487 -0.672934 -0.461754 0.577878
-0.491778 -77.0164 467.276 -0.653021 -0.498083 0.570506
-0.645054 -77.0003 467.077 -0.657775 -0.488295 0.573498
-0.82908 -77.0022 466.872 -0.659706 -0.460646 0.593795
-1.01133 -77.0032 466.667 -0.694585 -0.439111 0.569854
-1.17141 -76.9913 466.467 -0.747629 -0.419284 0.515026
-1.31023 -76.9671 466.271 -0.747401 -0.445139 0.493197
-1.46459 -76.952 466.072 -0.703879 -0.483212 0.520635
-1.62915 -76.943 465.872 -0.71899 -0.478869 0.503725
-1.76196 -76.9155 465.677 -0.76069 -0.432907 0.483677
-1.89865 -76.8903 465.483 -0.777418 -0.412405 0.474914
-2.01817 -76.8551 465.291 -0.770195 -0.424225 0.47627
-2.16119 -76.8346 465.095 -0.796365 -0.389046 0.463084
-2.28631 -76.801 464.904 -0.814241 -0.385098 0.434408
-2.41189 -76.7706 464.711 -0.82246 -0.39416 0.410119
-2.51879 -76.7283 464.522 -0.826113 -0.403909 0.392931
-2.64194 -76.6955 464.331 -0.817055 -0.427805 0.386528
-2.73878 -76.6431 464.147 -0.844929 -0.416011 0.3362
-2.83816 -76.6008 463.958 -0.859557 -0.422096 0.288093
-2.94146 -76.5531 463.772 -0.851342 -0.461607 0.249269
-3.03134 -76.5046 463.586 -0.822104 -0.528843 0.21088
-3.12251 -76.4492 463.403 -0.813583 -0.565856 0.133751
-3.1812 -76.3773 463.226 -0.820977 -0.570784 0.014218
-3.23603 -76.3028 463.049 -0.751762 -0.659303 0.013135
-3.31427 -76.2444 462.866 -0.713968 -0.700178 -0.000334025
-3.37521 -76.1769 462.687 -0.711638 -0.700986 -0.0467906
-3.43093 -76.1039 462.51 -0.707659 -0.703464 -0.0660037
-3.49277 -76.0359 462.331 -0.690653 -0.714168 -0.113858
-3.53189 -75.9525 462.157 -0.665874 -0.728597 -0.160494
-3.58288 -75.8805 461.979 -0.652 -0.727036 -0.215211
-3.62985 -75.8037 461.803 -0.613099 -0.750587 -0.246432
-3.67939 -75.7325 461.624 -0.567484 -0.763463 -0.308359
-3.71346 -75.6496 461.45 -0.472517 -0.804253 -0.360423
-3.7638 -75.574 461.272 -0.39833 -0.825238 -0.400394
-3.78271 -75.4809 461.103 -0.362015 -0.803732 -0.472187
-3.80129 -75.3868 460.932 -0.303527 -0.807762 -0.505364
-3.7991 -75.2809 460.765 -0.229325 -0.816842 -0.529319
-3.8005 -75.177 460.598 -0.164291 -0.83676 -0.522341
-3.81059 -75.0782 460.429 -0.125459 -0.843075 -0.522957
-3.82133 -74.9799 460.26 -0.0915289 -0.82198 -0.562112
-3.83654 -74.884 460.091 -0.0330518 -0.834765 -0.549613
-3.84819 -74.7863 459.921 0.0101274 -0.840927 -0.541053
-3.81804 -74.6636 459.76 0.0125602 -0.827856 -0.5608
-3.83511 -74.569 459.59 0.0227163 -0.827747 -0.560641
-3.81841 -74.4543 459.426 0.0309852 -0.807448 -0.589124
-3.75936 -74.3144 459.27 0.0383925 -0.802057 -0.596013
-3.74479 -74.2009 459.105 0.062812 -0.822603 -0.565136
-3.74431 -74.0958 458.938 0.0855326 -0.836099 -0.54187
-3.73588 -73.986 458.772 0.0849059 -0.834912 -0.543794
-3.73476 -73.8805 458.605 0.0797894 -0.81649 -0.571819
-3.73174 -73.7738 458.438 0.10629 -0.821293 -0.560517
-3.73375 -73.6703 458.272 0.125575 -0.834189 -0.536991
-3.73479 -73.566 458.104 0.127288 -0.821967 -0.555129
-3.69811 -73.4392 457.943 0.136337 -0.815755 -0.5621
-3.66749 -73.3158 457.781 0.143217 -0.832445 -0.535279
-3.65916 -73.2064 457.616 0.123676 -0.813439 -0.568349
-3.64125 -73.0906 457.451 0.123681 -0.800301 -0.586703
-3.61947 -72.9727 457.288 0.135867 -0.817232 -0.560064
-3.59728 -72.8545 457.124 0.132729 -0.828227 -0.544447
-3.60603 -72.7547 456.955 0.134556 -0.82206 -0.553274
-3.57573 -72.6317 456.793 0.135476 -0.817046 -0.560431
-3.57748 -72.5278 456.626 0.135328 -0.820345 -0.555627
-3.53072 -72.3949 456.466 0.138763 -0.827215 -0.544481
-3.54464 -72.298 456.297 0.13396 -0.824649 -0.549553
-3.52319 -72.1803 456.133 0.132525 -0.803875 -0.579847
-3.47254 -72.0449 455.974 0.134168 -0.82787 -0.544637
-3.4906 -71.9498 455.802 0.120853 -0.851937 -0.509507
-3.49652 -71.8499 455.635 0.113242 -0.857558 -0.501768
-3.51452 -71.755 455.464 0.0900034 -0.814464 -0.573191
-3.44406 -71.6077 455.308 0.0853862 -0.80721 -0.584055
-3.45298 -71.5078 455.139 0.0715369 -0.838279 -0.540529
-3.43895 -71.3943 454.974 0.0403925 -0.815484 -0.577368
-3.40128 -71.2666 454.812 0.0273329 -0.811097 -0.584273
-3.3631 -71.1385 454.651 0.0111611 -0.839343 -0.543487
-3.37462 -71.0403 454.481 -0.035372 -0.839009 -0.542966
-3.33686 -70.9124 454.32 -0.119223 -0.792452 -0.598168
-3.31862 -70.7963 454.155 -0.169189 -0.792846 -0.585466
-3.28226 -70.6692 453.994 -0.204711 -0.790301 -0.57751
-3.2554 -70.5479 453.83 -0.235928 -0.729885 -0.641565
-3.18688 -70.3995 453.675 -0.236532 -0.70415 -0.669496
-3.10181 -70.2348 453.529 -0.28255 -0.716173 -0.638171
-3.01964 -70.0762 453.378 -0.433291 -0.656469 -0.617501
-3.01253 -69.9777 453.202 -0.524078 -0.503464 -0.686925
-2.92923 -69.8236 453.046 -0.502374 -0.401546 -0.765755
-2.82748 -69.6577 452.894 -0.493536 -0.41738 -0.763031
