-6.39262 -23.5507 502.488 -0.715137 -0.459956 0.526327
-6.54598 -23.5384 502.299 -0.706057 -0.44301 0.552473
-6.72423 -23.5496 502.107 -0.711714 -0.44669 0.542155
-6.84485 -23.5086 501.922 -0.721182 -0.442565 0.532947
-6.99667 -23.4969 501.732 -0.757816 -0.402839 0.513259
-7.13814 -23.4738 501.545 -0.771791 -0.398248 0.49572
-7.25687 -23.4311 501.36 -0.815197 -0.364618 0.450009
-7.37576 -23.3886 501.175 -0.803259 -0.402581 0.438981
-7.5117 -23.3617 500.988 -0.743787 -0.423019 0.517528
-7.64888 -23.3359 500.801 -0.78861 -0.334782 0.515767
-7.77857 -23.3035 500.615 -0.856602 -0.298275 0.421028
-7.88432 -23.2492 500.432 -0.829309 -0.372109 0.41687
-8.02019 -23.2224 500.246 -0.839943 -0.374012 0.393205
-8.11842 -23.1614 500.064 -0.876234 -0.322074 0.358445
-8.19075 -23.0766 499.884 -0.842992 -0.356862 0.402509
-8.31987 -23.0438 499.699 -0.859512 -0.359006 0.363804
-8.40964 -22.9751 499.517 -0.838705 -0.365052 0.404117
-8.53443 -22.9385 499.332 -0.846072 -0.322853 0.424179
-8.62083 -22.8667 499.152 -0.908276 -0.246808 0.337819
-8.69492 -22.7836 498.972 -0.925583 -0.229497 0.301043
-8.78054 -22.7112 498.792 -0.922327 -0.266294 0.28
-8.87691 -22.6486 498.61 -0.905133 -0.321148 0.278565
-8.95137 -22.566 498.431 -0.915506 -0.308534 0.258177
-9.02043 -22.4783 498.252 -0.930362 -0.293717 0.219445
-9.08417 -22.3859 498.074 -0.924764 -0.298563 0.235949
-9.17504 -22.3183 497.893 -0.889205 -0.344074 0.301543
-9.26808 -22.2528 497.711 -0.907189 -0.316783 0.276869
-9.33157 -22.1601 497.533 -0.956491 -0.228227 0.181764
-9.3696 -22.0436 497.357 -0.961542 -0.223703 0.159354
-9.43286 -21.9511 497.18 -0.939838 -0.281569 0.193449
-9.51504 -21.8756 497 -0.929698 -0.30751 0.202729
-9.5785 -21.7831 496.822 -0.939924 -0.286694 0.185338
-9.64203 -21.6898 496.643 -0.962145 -0.234081 0.139583
-9.67133 -21.5665 496.469 -0.975763 -0.177128 0.128504
-9.71023 -21.4506 496.293 -0.971778 -0.167492 0.166115
-9.7701 -21.3545 496.116 -0.99163 -0.123431 0.0378891
-9.77721 -21.2097 495.943 -0.986647 -0.155391 -0.0487908
-9.79832 -21.0777 495.769 -0.97301 -0.22284 0.0599521
-9.85545 -20.9792 495.592 -0.975155 -0.206425 0.0803776
-9.85815 -20.8301 495.42 -0.982867 -0.172451 0.0650625
-9.88854 -20.7067 495.245 -0.989247 -0.13153 0.0639592
-9.90873 -20.5738 495.071 -0.997371 -0.0637088 0.0345411
-9.9237 -20.4359 494.897 -0.994119 -0.0785795 0.0745187
-9.97765 -20.3344 494.72 -0.997127 -0.0747499 0.0122135
-9.96283 -20.1688 494.55 -0.990915 -0.00123463 -0.134482
-9.93372 -19.99 494.38 -0.985117 -0.0267896 -0.169782
-9.90568 -19.8121 494.211 -0.996225 -0.0648877 -0.0576586
-9.9193 -19.6726 494.037 -0.988791 -0.104785 0.106358
-9.96875 -19.567 493.86 -0.982925 -0.132428 0.127755
-9.99495 -19.4392 493.685 -0.997261 -0.0672302 0.0308493
-10.0077 -19.299 493.512 -0.995819 -0.00606514 -0.0911481
-9.95549 -19.0983 493.344 -0.990797 0.0136938 -0.134659
-9.95615 -18.9467 493.172 -0.989511 -0.00260344 -0.144432
-9.92168 -18.7621 493.003 -0.981203 0.0245808 -0.191408
-9.87309 -18.5653 492.833 -0.979405 0.0550006 -0.194271
-9.84102 -18.3825 492.664 -0.975653 0.0371692 -0.216148
-9.77464 -18.1685 492.497 -0.968584 0.0819685 -0.234788
-9.71048 -17.956 492.33 -0.992016 0.0465672 -0.117204
-9.71019 -17.8029 492.158 -0.993149 0.0324761 -0.112249
-9.66452 -17.6073 491.99 -0.971064 0.0744909 -0.226905
-9.61797 -17.4114 491.82 -0.962464 0.0668278 -0.263052
-9.53231 -17.1785 491.654 -0.935282 0.135498 -0.326936
-9.42776 -16.9278 491.49 -0.908238 0.165047 -0.38453
-9.29703 -16.6524 491.328 -0.93212 0.142684 -0.332858
-9.23451 -16.4408 491.16 -0.959327 0.104557 -0.262219
-9.16612 -16.2231 490.994 -0.954996 0.0982782 -0.279865
-9.07694 -15.9867 490.827 -0.939705 0.17641 -0.292976
-8.97608 -15.7387 490.662 -0.880632 0.26148 -0.395115
-8.73247 -15.3568 490.509 -0.867365 0.277458 -0.413152
-8.61641 -15.0943 490.345 -0.888578 0.242417 -0.389439
-8.47583 -14.8086 490.182 -0.849438 0.196331 -0.489805
-8.29481 -14.4847 490.024 -0.823644 0.180093 -0.537752
-8.12281 -14.1691 489.864 -0.826671 0.191744 -0.529008
-7.92801 -13.8319 489.705 -0.805022 0.236576 -0.544033
-7.69039 -13.4542 489.55 -0.819636 0.252276 -0.514348
-7.52876 -13.1477 489.389 -0.786939 0.263547 -0.557916
-7.23682 -12.7183 489.238 -0.754803 0.254509 -0.604564
-2.82662 -22.8009 506.145 -0.390999 -0.519608 0.759689
-3.10493 -22.9005 505.937 -0.442735 -0.472283 0.762191
-3.37317 -22.9911 505.732 -0.468525 -0.486056 0.737722
-3.59923 -23.0438 505.531 -0.511674 -0.516326 0.686729
-3.81975 -23.0917 505.332 -0.504853 -0.539603 0.67376
-4.01541 -23.1172 505.135 -0.488052 -0.518322 0.702244
-4.2613 -23.1882 504.933 -0.554558 -0.490167 0.67246
-4.46033 -23.217 504.736 -0.532463 -0.54465 0.64795
-4.68103 -23.2655 504.537 -0.53204 -0.566244 0.629524
-4.85537 -23.2722 504.344 -0.531962 -0.573536 0.622955
-5.06431 -23.3101 504.147 -0.527383 -0.551803 0.64605
-5.25747 -23.334 503.952 -0.619455 -0.453018 0.641132
-5.43506 -23.3445 503.759 -0.652438 -0.41074 0.636881
-5.62034 -23.3614 503.565 -0.665214 -0.421046 0.616612
-5.79227 -23.3664 503.373 -0.664191 -0.443513 0.601786
-5.961 -23.3686 503.181 -0.65465 -0.455987 0.602917
-6.14348 -23.3827 502.988 -0.672226 -0.449722 0.5881
-6.29493 -23.3693 502.798 -0.723208 -0.433448 0.537673
-6.44685 -23.3574 502.609 -0.733185 -0.453648 0.5066
-6.58907 -23.3342 502.421 -0.681061 -0.495761 0.538866
-6.74128 -23.3228 502.231 -0.709589 -0.452963 0.53973
-6.89751 -23.3148 502.041 -0.742116 -0.432925 0.511703
-7.03723 -23.2898 501.854 -0.741743 -0.447506 0.499555
-7.16574 -23.2554 501.669 -0.787688 -0.364601 0.496602
-7.30476 -23.2323 501.481 -0.799999 -0.337742 0.495915
-7.44563 -23.2098 501.293 -0.810823 -0.400253 0.42704
-7.52395 -23.1305 501.113 -0.780898 -0.459136 0.423548
-7.66518 -23.1086 500.925 -0.75325 -0.442322 0.486792
-7.80221 -23.0826 500.739 -0.798176 -0.39577 0.454182
-7.92612 -23.0449 500.553 -0.825252 -0.363876 0.431919
-8.02546 -22.9847 500.371 -0.870479 -0.300914 0.389509
-8.09907 -22.9011 500.191 -0.873959 -0.30189 0.380865
-8.25506 -22.8929 500.002 -0.825713 -0.389315 0.408206
-8.35054 -22.8293 499.821 -0.860935 -0.375649 0.343043
-8.43199 -22.7529 499.64 -0.869452 -0.33159 0.366199
-8.53427 -22.6956 499.458 -0.861051 -0.326956 0.389475
-8.63619 -22.6381 499.275 -0.904682 -0.272207 0.327801
-8.7216 -22.5654 499.094 -0.897984 -0.304528 0.317627
-8.82792 -22.5119 498.911 -0.88855 -0.347042 0.300068
-8.89323 -22.4208 498.733 -0.90867 -0.306878 0.283098
-8.98422 -22.3533 498.552 -0.915099 -0.302806 0.266275
-9.06355 -22.2751 498.372 -0.930115 -0.299964 0.211915
-9.12738 -22.1828 498.194 -0.914814 -0.329138 0.23406
-9.21043 -22.1077 498.013 -0.894396 -0.344826 0.28487
-9.28538 -22.0257 497.834 -0.928502 -0.266423 0.258656
-9.34899 -21.9332 497.656 -0.957322 -0.204964 0.203776
-9.41851 -21.8458 497.477 -0.95278 -0.223341 0.205741
-9.49058 -21.7612 497.298 -0.938723 -0.254766 0.23215
-9.54554 -21.6605 497.121 -0.944743 -0.231292 0.232303
-9.60884 -21.5677 496.943 -0.958689 -0.197991 0.204242
-9.65079 -21.4549 496.767 -0.979017 -0.160911 0.125029
-9.68039 -21.3307 496.592 -0.982486 -0.15134 0.108705
-9.73207 -21.2274 496.415 -0.965071 -0.188372 0.182085
-9.79514 -21.134 496.237 -0.98212 -0.145279 0.119725
-9.81927 -21.0049 496.063 -0.995108 -0.0986474 0.00537763
-9.82536 -20.859 495.89 -0.98369 -0.167267 0.0661487
-9.87082 -20.7491 495.714 -0.980891 -0.183566 0.0644639
-9.90137 -20.6266 495.54 -0.986421 -0.162997 0.020157
-9.93692 -20.5075 495.364 -0.99222 -0.124491 -0.00132225
-9.9182 -20.3384 495.194 -0.997063 -0.0744436 0.0179985
-9.95583 -20.2216 495.018 -0.989078 -0.124119 0.0794935
-9.96785 -20.0809 494.845 -0.997129 -0.0728781 0.0205611
-9.97166 -19.9326 494.672 -0.9974 0.00323345 -0.0719885
-9.96033 -19.7702 494.501 -0.985974 0.00569679 -0.1668
-9.91013 -19.5717 494.334 -0.992099 -0.056635 -0.111945
-9.93431 -19.4421 494.159 -0.982064 -0.169225 0.0831498
-9.98861 -19.3405 493.982 -0.984735 -0.140992 0.102073
-9.99977 -19.1988 493.808 -0.995756 -0.0906554 0.0158843
-10.011 -19.0571 493.635 -0.99466 -0.0211365 -0.101019
-9.98374 -18.8795 493.465 -0.98666 -0.0389331 -0.158073
-9.98017 -18.7241 493.292 -0.983696 -0.0332161 -0.176745
-9.91906 -18.5142 493.127 -0.977215 0.0445761 -0.207516
-9.88467 -18.3302 492.956 -0.980967 0.0201876 -0.193124
-9.85075 -18.1461 492.787 -0.97373 0.079737 -0.213289
-9.76974 -17.9178 492.622 -0.967177 0.116237 -0.225957
-9.72283 -17.7215 492.453 -0.989969 0.00753909 -0.141081
-9.73166 -17.577 492.279 -0.990641 -0.0161552 -0.135534
-9.68647 -17.382 492.11 -0.973662 0.0463645 -0.223232
-9.63144 -17.1777 491.942 -0.956176 0.0916367 -0.278083
-9.54082 -16.9401 491.777 -0.939209 0.147812 -0.309901
-9.45339 -16.7052 491.611 -0.909291 0.173602 -0.378224
-9.30394 -16.4123 491.451 -0.926048 0.122282 -0.357046
-9.26296 -16.2213 491.278 -0.960818 0.0869008 -0.263205
-9.17361 -15.9835 491.115 -0.938807 0.147966 -0.311041
-9.05057 -15.7149 490.952 -0.925918 0.196401 -0.322651
-8.9154 -15.4345 490.79 -0.878992 0.269476 -0.39339
-8.73029 -15.1072 490.632 -0.858271 0.227005 -0.46026
-8.60355 -14.8344 490.469 -0.888954 0.12085 -0.441764
-8.51711 -14.5994 490.302 -0.859599 0.171733 -0.481246
-8.32839 -14.268 490.144 -0.826019 0.198 -0.52772
-8.1543 -13.9503 489.984 -0.816082 0.206035 -0.539962
-7.94052 -13.595 489.827 -0.788736 0.23758 -0.566967
-7.70101 -13.2152 489.673 -0.81258 0.230493 -0.535338
-7.53259 -12.9021 489.512 -0.785686 0.233227 -0.572977
-7.26585 -12.4962 489.359 -0.749727 0.251034 -0.612284
-2.86406 -22.5915 506.269 -0.388951 -0.574308 0.720339
-3.11836 -22.6694 506.064 -0.378104 -0.555578 0.740521
-3.39497 -22.7677 505.857 -0.42581 -0.511782 0.746167
-3.66162 -22.8572 505.651 -0.495192 -0.514393 0.700131
-3.85804 -22.8833 505.455 -0.517305 -0.552882 0.653236
-4.08363 -22.9359 505.255 -0.485953 -0.544786 0.683416
-4.31159 -22.9908 505.055 -0.492843 -0.532487 0.688159
-4.53318 -23.0401 504.855 -0.535335 -0.507281 0.675339
-4.73821 -23.0745 504.658 -0.557798 -0.506783 0.657291
-4.94829 -23.1136 504.46 -0.572456 -0.532604 0.6234
-5.12178 -23.1197 504.268 -0.602725 -0.532927 0.593895
-5.26679 -23.1002 504.078 -0.605723 -0.54119 0.583278
-5.46032 -23.1247 503.883 -0.596304 -0.515272 0.615561
-5.64591 -23.1417 503.689 -0.617352 -0.495175 0.611292
-5.82709 -23.1551 503.496 -0.633672 -0.499386 0.590824
-6.00147 -23.1614 503.304 -0.63349 -0.50659 0.584857
-6.16714 -23.1612 503.112 -0.65856 -0.477724 0.581445
-6.33913 -23.1673 502.92 -0.705362 -0.4315 0.562381
-6.49038 -23.1538 502.73 -0.717464 -0.450189 0.531578
-6.64345 -23.141 502.541 -0.718764 -0.464231 0.517559
-6.78411 -23.1191 502.353 -0.705433 -0.477392 0.52389
-6.93499 -23.1043 502.164 -0.727838 -0.443315 0.523187
-7.07358 -23.0805 501.977 -0.808047 -0.372242 0.456613
-7.15827 -23.0071 501.795 -0.804221 -0.355422 0.476345
-7.3104 -22.9948 501.606 -0.742488 -0.368924 0.559112
-7.47577 -22.9948 501.416 -0.798881 -0.329365 0.503297
-7.61326 -22.9693 501.229 -0.82797 -0.370097 0.4213
-7.71441 -22.9106 501.046 -0.766804 -0.453232 0.454525
-7.85337 -22.8865 500.859 -0.802023 -0.42025 0.424441
-7.93208 -22.8076 500.678 -0.833679 -0.409556 0.370463
-8.05977 -22.7734 500.493 -0.847189 -0.396893 0.353195
-8.17067 -22.7239 500.309 -0.804352 -0.446345 0.392167
-8.29073 -22.6828 500.124 -0.812811 -0.408904 0.414892
-8.38494 -22.6181 499.942 -0.89927 -0.293448 0.324349
-8.46671 -22.5419 499.762 -0.876398 -0.330423 0.350353
-8.58677 -22.5009 499.577 -0.864911 -0.35961 0.350156
-8.65806 -22.4152 499.398 -0.879275 -0.33505 0.338551
-8.77736 -22.3738 499.214 -0.877853 -0.306568 0.367953
-8.85735 -22.2959 499.033 -0.916271 -0.247704 0.314784
-8.9352 -22.2164 498.853 -0.912489 -0.273822 0.303949
-9.03151 -22.1538 498.672 -0.908443 -0.294813 0.296338
-9.09728 -22.063 498.493 -0.932827 -0.251868 0.257674
-9.17766 -21.9858 498.313 -0.929639 -0.260429 0.26067
-9.24508 -21.8966 498.134 -0.933181 -0.240327 0.267238
-9.31143 -21.8068 497.956 -0.945018 -0.210895 0.249929
-9.37507 -21.7138 497.778 -0.953032 -0.201404 0.2262
-9.42701 -21.6104 497.601 -0.950162 -0.199773 0.239338
-9.49049 -21.5176 497.423 -0.952258 -0.183645 0.243885
-9.55405 -21.4248 497.244 -0.95436 -0.180014 0.238311
-9.62097 -21.3352 497.066 -0.959871 -0.157457 0.232064
-9.68424 -21.2423 496.888 -0.981363 -0.113512 0.155055
-9.71319 -21.1175 496.713 -0.982661 -0.151147 0.107386
-9.75171 -21.0015 496.537 -0.964618 -0.215282 0.152205
-9.80303 -20.8977 496.36 -0.976798 -0.181769 0.113253
-9.83036 -20.7713 496.186 -0.990509 -0.13566 0.0220769
-9.86028 -20.6474 496.011 -0.978015 -0.197838 0.0659292
-9.92204 -20.5529 495.833 -0.978923 -0.194965 0.0608131
-9.92295 -20.4021 495.661 -0.992297 -0.122661 0.0173181
-9.93408 -20.2607 495.488 -0.997979 -0.0582587 -0.0253574
-9.92314 -20.0987 495.317 -0.992992 -0.118024 0.00607227
-9.98397 -20.0033 495.139 -0.992743 -0.0940918 0.074884
-9.97481 -19.843 494.968 -0.999414 -0.0147843 0.0308594
-9.99806 -19.7126 494.793 -0.997217 -0.0505399 -0.0547994
-9.97566 -19.5398 494.624 -0.983714 -0.0424681 -0.174654
-9.96875 -19.3814 494.452 -0.984399 -0.100277 -0.14458
-9.96626 -19.2269 494.28 -0.985441 -0.166212 0.0357801
-10.001 -19.1071 494.104 -0.987066 -0.107774 0.118681
-10.0378 -18.9892 493.928 -0.998074 -0.0430339 0.0446899
-10.0337 -18.8332 493.756 -0.998534 -0.0299813 -0.045074
-10.0414 -18.6879 493.583 -0.990807 -0.0204162 -0.133732
-9.98632 -18.4843 493.415 -0.984345 0.0480124 -0.169585
-9.95301 -18.3004 493.247 -0.981591 0.0450297 -0.185611
-9.91923 -18.1163 493.078 -0.971644 0.0434701 -0.232419
-9.82437 -17.8757 492.912 -0.970067 0.112372 -0.215273
-9.78819 -17.6893 492.743 -0.977603 0.0686533 -0.198945
-9.75957 -17.5098 492.573 -0.984566 -0.0474944 -0.168449
-9.74233 -17.3409 492.401 -0.985355 -0.0288649 -0.168052
-9.6999 -17.1483 492.232 -0.973072 0.066652 -0.220656
-9.63459 -16.9343 492.065 -0.952301 0.137106 -0.272627
-9.52411 -16.6779 491.901 -0.945435 0.157861 -0.285013
-9.45563 -16.4604 491.735 -0.927339 0.177171 -0.329625
-9.33488 -16.1943 491.571 -0.926655 0.143368 -0.347499
-9.24498 -15.9567 491.406 -0.950291 0.0997126 -0.294965
-9.16369 -15.727 491.239 -0.92678 0.172276 -0.333766
-9.03304 -15.4509 491.077 -0.902404 0.193702 -0.384899
-8.90945 -15.1813 490.914 -0.889188 0.197095 -0.412915
-8.80159 -14.9263 490.749 -0.871876 0.161323 -0.462392
-8.66738 -14.6464 490.587 -0.867766 0.107343 -0.485241
-8.51491 -14.3491 490.425 -0.863035 0.176218 -0.473411
-8.34814 -14.0382 490.265 -0.849421 0.239794 -0.470087
-8.16108 -13.708 490.107 -0.83378 0.248958 -0.492778
-7.95989 -13.3643 489.949 -0.797397 0.259043 -0.545027
-7.71212 -12.9765 489.795 -0.813697 0.215817 -0.539741
-7.58836 -12.7053 489.63 -0.789738 0.233969 -0.567074
-7.26839 -12.2489 489.482 -0.758078 0.280184 -0.58891
-3.19438 -22.4948 506.183 -0.404765 -0.563864 0.719877
-3.42777 -22.5541 505.982 -0.385525 -0.5616 0.732104
-3.70612 -22.6543 505.774 -0.460848 -0.519049 0.719866
-3.92946 -22.7048 505.574 -0.549486 -0.511392 0.660714
-4.10656 -22.7136 505.38 -0.494411 -0.546208 0.676176
-4.35601 -22.7881 505.177 -0.507116 -0.533256 0.677106
-4.52754 -22.792 504.984 -0.54812 -0.47519 0.688301
-4.78104 -22.8704 504.781 -0.564294 -0.446262 0.694567
-4.95886 -22.8803 504.587 -0.604851 -0.451686 0.655847
-5.17264 -22.923 504.389 -0.634486 -0.445799 0.63142
-5.37178 -22.9519 504.193 -0.650733 -0.492988 0.577503
-5.50984 -22.9265 504.004 -0.590975 -0.550263 0.58988
-5.71681 -22.9627 503.808 -0.599723 -0.518211 0.609746
-5.87762 -22.9582 503.617 -0.631445 -0.491583 0.599686
-6.06619 -22.9777 503.423 -0.664828 -0.473784 0.577523
-6.20311 -22.9521 503.234 -0.683333 -0.474892 0.554557
-6.36454 -22.9481 503.043 -0.675145 -0.463874 0.573585
-6.53445 -22.952 502.852 -0.713884 -0.428604 0.553776
-6.67569 -22.9288 502.664 -0.724196 -0.431802 0.537669
-6.83823 -22.9258 502.473 -0.738822 -0.438393 0.511814
-6.95543 -22.8815 502.288 -0.764253 -0.401372 0.504795
-7.09858 -22.861 502.1 -0.82911 -0.338154 0.445229
-7.20142 -22.804 501.916 -0.80468 -0.406285 0.432923
-7.34367 -22.7824 501.729 -0.718318 -0.467398 0.515324
-7.46981 -22.7466 501.543 -0.73371 -0.413608 0.539072
-7.63121 -22.7429 501.353 -0.798008 -0.35585 0.486369
-7.74494 -22.6958 501.168 -0.804331 -0.358778 0.473635
-7.89326 -22.6804 500.98 -0.816567 -0.339356 0.466965
-8.01622 -22.6418 500.794 -0.848768 -0.359201 0.38803
-8.1129 -22.5792 500.612 -0.835124 -0.390962 0.386934
-8.21393 -22.5207 500.429 -0.852628 -0.347181 0.3905
-8.30569 -22.4536 500.248 -0.870453 -0.297156 0.39244
-8.40789 -22.3962 500.065 -0.894548 -0.258456 0.36467
-8.50202 -22.3314 499.883 -0.863207 -0.335673 0.37709
-8.61464 -22.2835 499.699 -0.883352 -0.305929 0.355102
-8.69146 -22.203 499.52 -0.902744 -0.298034 0.310207
-8.76795 -22.1219 499.34 -0.885461 -0.338073 0.318851
-8.85662 -22.0522 499.159 -0.898395 -0.290977 0.328965
-8.96544 -22.0011 498.975 -0.901263 -0.287842 0.323841
-9.03274 -21.9116 498.797 -0.921171 -0.264199 0.285731
-9.11723 -21.8383 498.616 -0.931513 -0.244294 0.269452
-9.1816 -21.7461 498.438 -0.939527 -0.239703 0.244603
-9.24531 -21.6535 498.259 -0.939732 -0.240127 0.243397
-9.32271 -21.5737 498.08 -0.942006 -0.233516 0.241031
-9.38633 -21.4808 497.901 -0.954253 -0.213823 0.209
-9.44896 -21.3871 497.723 -0.952855 -0.226989 0.201355
-9.51247 -21.2943 497.545 -0.946404 -0.24753 0.207482
-9.57532 -21.2012 497.367 -0.953324 -0.245241 0.176154
-9.61401 -21.0851 497.191 -0.952372 -0.252088 0.171576
-9.67691 -20.9918 497.013 -0.958537 -0.237498 0.157485
-9.73882 -20.8973 496.834 -0.973192 -0.187281 0.133503
-9.79059 -20.7941 496.658 -0.971017 -0.177433 0.160134
-9.84336 -20.691 496.48 -0.977831 -0.166937 0.126405
-9.88 -20.5733 496.305 -0.988757 -0.130422 0.0731431
-9.90351 -20.4433 496.131 -0.983852 -0.147831 0.100905
-9.93153 -20.3176 495.956 -0.990632 -0.127381 0.049217
-9.94155 -20.1751 495.783 -0.997408 -0.0718668 0.00341762
-9.9627 -20.0429 495.609 -0.995924 -0.0901206 0.00361343
-9.99435 -19.9204 495.434 -0.991287 -0.11171 -0.0697915
-9.93085 -19.7095 495.268 -0.994127 -0.107032 -0.0160235
-9.99203 -19.6143 495.09 -0.988805 -0.143215 0.0418759
-10.0204 -19.4887 494.915 -0.996113 -0.0875841 -0.00933815
-10.0346 -19.3498 494.741 -0.995068 -0.0137202 -0.0982404
-9.99136 -19.1575 494.573 -0.989742 -0.0451204 -0.135551
-9.9808 -18.9955 494.402 -0.992118 -0.111926 -0.0563497
-9.98574 -18.8478 494.229 -0.984277 -0.17336 0.033835
-10.0221 -18.7294 494.053 -0.993671 -0.103466 0.043742
-10.0388 -18.5926 493.879 -0.999628 -0.0256687 0.00923093
-10.04 -18.4414 493.706 -0.992139 0.0791158 -0.096955
-9.96209 -18.2162 493.541 -0.989923 0.0886584 -0.110418
-9.98638 -18.0864 493.366 -0.988676 0.0548996 -0.139665
-9.89252 -17.8463 493.202 -0.963069 0.124263 -0.238865
-9.83787 -17.6424 493.035 -0.975972 0.0844075 -0.200884
-9.81535 -17.4686 492.864 -0.990822 0.0119244 -0.134649
-9.80142 -17.3028 492.692 -0.98979 0.00205879 -0.142519
-9.76134 -17.1124 492.523 -0.980006 0.0279946 -0.196987
-9.70319 -16.9049 492.355 -0.965176 0.0989531 -0.242165
-9.61392 -16.6684 492.19 -0.949267 0.148587 -0.277152
-9.5398 -16.4461 492.022 -0.944177 0.148349 -0.294147
-9.43872 -16.1979 491.859 -0.937223 0.148075 -0.315731
-9.35464 -15.9657 491.693 -0.928858 0.13087 -0.346547
-9.26578 -15.729 491.527 -0.926472 0.0994148 -0.362996
-9.16397 -15.4799 491.362 -0.910045 0.120396 -0.39664
-9.0576 -15.2264 491.198 -0.892166 0.155618 -0.424056
-8.91964 -14.9431 491.036 -0.898892 0.146754 -0.412864
-8.81535 -14.6913 490.871 -0.899571 0.153251 -0.409007
-8.68242 -14.4124 490.708 -0.878725 0.200642 -0.433112
-8.51733 -14.103 490.548 -0.848002 0.214396 -0.484692
-8.31836 -13.7616 490.391 -0.843137 0.226073 -0.487863
-8.15709 -13.4555 490.23 -0.851301 0.265845 -0.452343
-7.95587 -13.1115 490.073 -0.821744 0.26637 -0.50377
-7.76363 -12.7757 489.914 -0.791987 0.184871 -0.581876
-7.54512 -12.415 489.757 -0.772584 0.220488 -0.595398
-7.30666 -12.0352 489.602 -0.758327 0.295338 -0.581133
-3.23818 -22.2909 506.306 -0.413995 -0.553211 0.722887
-3.48787 -22.3651 506.102 -0.398031 -0.585973 0.705838
-3.72987 -22.4324 505.9 -0.444546 -0.537966 0.716221
-3.96033 -22.4895 505.699 -0.550379 -0.467739 0.691595
-4.18556 -22.5419 505.498 -0.515872 -0.523828 0.67785
-4.3993 -22.5841 505.3 -0.543242 -0.544787 0.638823
-4.56827 -22.5858 505.107 -0.529848 -0.551797 0.644035
-4.79207 -22.6373 504.907 -0.513799 -0.521566 0.68116
-5.00569 -22.6798 504.709 -0.590486 -0.478799 0.649675
-5.1797 -22.6863 504.516 -0.579326 -0.479686 0.659001
-5.38856 -22.7247 504.318 -0.64725 -0.420889 0.635547
-5.56855 -22.7369 504.125 -0.659051 -0.453216 0.600206
-5.73144 -22.7337 503.933 -0.638101 -0.465311 0.613444
-5.91302 -22.7475 503.74 -0.665342 -0.421844 0.615929
-6.07801 -22.7449 503.549 -0.682679 -0.41103 0.604156
-6.26173 -22.7624 503.354 -0.716384 -0.413423 0.562028
-6.39942 -22.7359 503.167 -0.69546 -0.453191 0.557632
-6.56056 -22.7321 502.976 -0.703504 -0.441724 0.556742
-6.71254 -22.7186 502.787 -0.712373 -0.437599 0.548664
-6.86946 -22.7113 502.596 -0.763537 -0.419907 0.4906
-6.97478 -22.6568 502.412 -0.783009 -0.402409 0.474304
-7.12858 -22.6455 502.223 -0.772959 -0.412356 0.482179
-7.25946 -22.6138 502.036 -0.777676 -0.449335 0.439679
-7.38775 -22.5795 501.85 -0.754652 -0.46657 0.461317
-7.52197 -22.5513 501.663 -0.739721 -0.453489 0.497152
-7.66097 -22.5273 501.475 -0.779385 -0.408116 0.475395
-7.76847 -22.4744 501.291 -0.81399 -0.353836 0.460674
-7.88717 -22.432 501.106 -0.784356 -0.353095 0.510009
-8.0338 -22.415 500.918 -0.842808 -0.317908 0.434292
-8.11922 -22.342 500.737 -0.874639 -0.29847 0.381998
-8.23638 -22.2982 500.553 -0.891181 -0.245705 0.381346
-8.30834 -22.213 500.373 -0.884098 -0.280764 0.373554
-8.42968 -22.1731 500.188 -0.849069 -0.343737 0.401157
-8.5433 -22.1262 500.004 -0.870404 -0.340754 0.355364
-8.61621 -22.0418 499.825 -0.873372 -0.32827 0.359806
-8.74614 -22.01 499.639 -0.887814 -0.30604 0.343694
-8.83492 -21.9403 499.458 -0.907704 -0.32108 0.270151
-8.90449 -21.853 499.279 -0.884972 -0.360445 0.294795
-8.99227 -21.7824 499.097 -0.891243 -0.349624 0.288875
-9.07515 -21.7074 498.917 -0.916882 -0.313845 0.246633
-9.14501 -21.6204 498.738 -0.921432 -0.295833 0.251885
-9.22783 -21.5453 498.558 -0.938836 -0.242966 0.244036
-9.2937 -21.4546 498.379 -0.943188 -0.22289 0.246409
-9.35755 -21.3621 498.201 -0.943704 -0.22649 0.241093
-9.42111 -21.2694 498.022 -0.947254 -0.236469 0.216315
-9.48674 -21.1782 497.844 -0.945466 -0.250315 0.208414
-9.55031 -21.0856 497.665 -0.941525 -0.256784 0.218159
-9.62428 -21.0026 497.486 -0.951684 -0.242345 0.188589
-9.68784 -20.9096 497.308 -0.954583 -0.247524 0.165842
-9.74921 -20.8147 497.13 -0.968229 -0.216916 0.124417
-9.7508 -20.6646 496.958 -0.977767 -0.178979 0.109261
-9.79764 -20.5563 496.781 -0.968018 -0.194811 0.158083
-9.84654 -20.4498 496.604 -0.981093 -0.140143 0.133475
-9.86942 -20.3193 496.43 -0.990132 -0.0987207 0.0994589
-9.9061 -20.2015 496.255 -0.984432 -0.119412 0.128972
-9.9668 -20.106 496.076 -0.996263 -0.0659059 0.0558208
-9.94261 -19.9317 495.907 -0.997302 -0.0662165 0.0316994
-9.99438 -19.8278 495.73 -0.990344 -0.128057 0.053102
-9.99339 -19.6749 495.558 -0.992217 -0.0854196 -0.0906001
-10.0166 -19.5445 495.384 -0.97517 -0.202993 -0.0885291
-10.049 -19.4225 495.208 -0.96859 -0.238481 -0.0704291
-10.0077 -19.232 495.04 -0.988741 -0.127147 -0.0789038
-10.027 -19.0979 494.866 -0.993577 -0.0742262 -0.0854157
-10.0239 -18.9427 494.694 -0.989957 -0.0643989 -0.125848
-10.036 -18.8017 494.52 -0.985367 -0.152649 -0.07583
-10.0653 -18.6767 494.345 -0.987946 -0.148066 -0.0451636
-10.047 -18.5072 494.174 -0.996403 -0.0819065 -0.0217458
-10.0447 -18.3527 494.002 -0.999452 0.0260339 -0.0204483
-9.99828 -18.1569 493.834 -0.991898 0.0938279 -0.0856432
-9.99393 -18.0002 493.662 -0.992383 0.00923528 -0.122845
-9.96106 -17.8169 493.492 -0.981976 0.0392344 -0.184887
-9.90604 -17.6128 493.325 -0.965823 0.102653 -0.238007
-9.85492 -17.4122 493.157 -0.977332 0.0328208 -0.209152
-9.81282 -17.22 492.987 -0.990153 -0.0117605 -0.139493
-9.80297 -17.0583 492.814 -0.990796 0.00431801 -0.135297
-9.77033 -16.8744 492.645 -0.975404 0.075277 -0.207171
-9.6964 -16.6521 492.479 -0.955245 0.107039 -0.275772
-9.62627 -16.4332 492.312 -0.942993 0.110404 -0.313966
-9.53094 -16.1906 492.147 -0.941222 0.120194 -0.315681
-9.46011 -15.9709 491.98 -0.941367 0.114251 -0.317451
-9.37978 -15.7421 491.814 -0.934337 0.0960321 -0.343208
-9.29332 -15.5074 491.648 -0.928137 0.105383 -0.357009
-9.2072 -15.2729 491.482 -0.913235 0.150725 -0.378529
-9.0597 -14.9806 491.321 -0.901151 0.173922 -0.397087
-8.9557 -14.7291 491.156 -0.899049 0.156748 -0.408829
-8.81813 -14.4458 490.994 -0.890128 0.171704 -0.422127
-8.67068 -14.153 490.833 -0.88516 0.199492 -0.42035
-8.54944 -13.8847 490.669 -0.850868 0.229615 -0.472546
-8.33721 -13.5306 490.513 -0.816391 0.23547 -0.527313
-8.10735 -13.1596 490.358 -0.833362 0.207611 -0.512255
-7.9863 -12.8909 490.193 -0.837931 0.179048 -0.515571
-7.83974 -12.5981 490.031 -0.790771 0.202306 -0.577714
-7.5808 -12.1989 489.878 -0.74635 0.297077 -0.595573
-7.13197 -11.6203 489.74 -0.743556 0.360599 -0.56311
-3.31081 -22.1131 506.426 -0.395999 -0.543444 0.740171
-3.55903 -22.186 506.222 -0.474603 -0.520094 0.710108
-3.76002 -22.2163 506.024 -0.514601 -0.486895 0.705775
-3.98844 -22.2715 505.823 -0.494519 -0.50159 0.70983
-4.22663 -22.3358 505.621 -0.506413 -0.504724 0.699142
-4.44775 -22.3847 505.422 -0.569848 -0.484436 0.663773
-4.65382 -22.4201 505.224 -0.571096 -0.525596 0.630554
-4.83075 -22.4292 505.03 -0.519884 -0.550299 0.653369
-5.05047 -22.4772 504.831 -0.578138 -0.508336 0.63824
-5.22007 -22.4798 504.638 -0.599183 -0.506057 0.620392
-5.41333 -22.5041 504.443 -0.587412 -0.494373 0.640735
-5.60301 -22.5251 504.248 -0.656699 -0.4482 0.606517
-5.76506 -22.5214 504.056 -0.66492 -0.468432 0.581768
-5.92827 -22.5175 503.865 -0.642147 -0.489143 0.590243
-6.10904 -22.532 503.671 -0.648191 -0.46843 0.600351
-6.27324 -22.5298 503.48 -0.683313 -0.438164 0.584034
-6.44547 -22.5357 503.288 -0.710542 -0.429406 0.557441
-6.5948 -22.5203 503.098 -0.702537 -0.445829 0.554688
-6.75597 -22.516 502.908 -0.70981 -0.434063 0.55476
-6.90439 -22.5002 502.719 -0.781745 -0.375781 0.497657
-7.02707 -22.4611 502.533 -0.778098 -0.407613 0.477928
-7.17028 -22.4405 502.344 -0.724638 -0.46925 0.504682
-7.31837 -22.4246 502.156 -0.770268 -0.458509 0.443233
-7.42225 -22.3683 501.972 -0.774686 -0.450423 0.443824
-7.5642 -22.3469 501.784 -0.768384 -0.426236 0.477398
-7.67957 -22.3012 501.599 -0.806511 -0.399487 0.435832
-7.79934 -22.2604 501.414 -0.814849 -0.399927 0.419618
-7.92087 -22.2196 501.229 -0.760203 -0.436311 0.481378
-8.07177 -22.2067 501.04 -0.826458 -0.378509 0.416772
-8.14591 -22.1233 500.86 -0.896178 -0.306014 0.32128
-8.22469 -22.0443 500.68 -0.862415 -0.321381 0.391093
-8.37237 -22.0285 500.492 -0.848538 -0.35445 0.392873
-8.45973 -21.9574 500.31 -0.825748 -0.403495 0.394121
-8.58393 -21.9202 500.125 -0.870654 -0.366295 0.328314
-8.65493 -21.8341 499.946 -0.872636 -0.359619 0.330424
-8.76196 -21.7812 499.762 -0.867702 -0.300594 0.395898
-8.84835 -21.7093 499.581 -0.912696 -0.211563 0.34961
-8.94773 -21.6494 499.399 -0.908358 -0.236327 0.345015
-9.03997 -21.5829 499.217 -0.910893 -0.269344 0.312613
-9.11257 -21.4986 499.038 -0.931389 -0.264449 0.250161
-9.17624 -21.4056 498.86 -0.943989 -0.24032 0.226122
-9.2235 -21.2977 498.683 -0.948174 -0.213782 0.235081
-9.28728 -21.2048 498.504 -0.941365 -0.221757 0.254274
-9.3698 -21.1298 498.324 -0.934549 -0.246904 0.256237
-9.44648 -21.0488 498.144 -0.938237 -0.266961 0.220096
-9.51015 -20.9562 497.966 -0.939249 -0.286256 0.189394
-9.57368 -20.8635 497.788 -0.935977 -0.289403 0.200484
-9.63734 -20.7704 497.609 -0.943984 -0.266847 0.194133
-9.68831 -20.6662 497.433 -0.960825 -0.214848 0.175085
-9.73201 -20.5547 497.256 -0.980484 -0.138109 0.139915
-9.78985 -20.4566 497.078 -0.982345 -0.140913 0.12305
-9.83811 -20.3496 496.901 -0.975106 -0.195914 0.103852
-9.86018 -20.2182 496.727 -0.977038 -0.205502 0.0562588
-9.90701 -20.1098 496.551 -0.97699 -0.211827 0.0248702
-9.92509 -19.9747 496.377 -0.977326 -0.206591 0.0464042
-9.94483 -19.8411 496.203 -0.991232 -0.129911 0.0241245
-9.9747 -19.7169 496.028 -0.988651 -0.145518 0.0373397
-10.0191 -19.6061 495.851 -0.980812 -0.186393 0.0571445
-10.0568 -19.4891 495.676 -0.987872 -0.155061 -0.00809097
-10.0752 -19.3542 495.502 -0.984997 -0.169519 -0.0323183
-10.0719 -19.1989 495.33 -0.996451 -0.0655097 -0.0528528
-10.0874 -19.061 495.156 -0.996334 -0.0479425 -0.0708583
-10.075 -18.8973 494.985 -0.985447 -0.125699 -0.114425
-10.0691 -18.7395 494.813 -0.983955 -0.135388 -0.116198
-10.0681 -18.5863 494.641 -0.987323 -0.133057 -0.0865415
-10.0467 -18.414 494.471 -0.994734 -0.0675275 -0.0770981
-10.0459 -18.2607 494.298 -0.996047 0.011677 -0.0880613
-9.99914 -18.0647 494.13 -0.997078 0.0328987 -0.0689375
-10.0251 -17.9361 493.955 -0.998151 -0.0265545 -0.0546702
-10.029 -17.787 493.782 -0.989351 -0.0172273 -0.144524
-9.97476 -17.5831 493.616 -0.974088 0.0508202 -0.220387
-9.92317 -17.3828 493.446 -0.97269 0.0530029 -0.225977
-9.88068 -17.1903 493.277 -0.976035 0.0186096 -0.216817
-9.85181 -17.0098 493.108 -0.978708 -0.0473852 -0.199714
-9.82755 -16.8344 492.937 -0.980019 -0.0124911 -0.198513
-9.76564 -16.6233 492.769 -0.9726 0.0535004 -0.226246
-9.73352 -16.4401 492.599 -0.956178 0.0850766 -0.280152
-9.63683 -16.1959 492.435 -0.936263 0.100722 -0.336551
-9.56072 -15.9715 492.268 -0.9326 0.0850165 -0.350756
-9.46874 -15.7317 492.103 -0.946646 0.088626 -0.30985
-9.40964 -15.5227 491.935 -0.939777 0.114414 -0.322069
-9.29427 -15.2607 491.771 -0.924051 0.135451 -0.357467
-9.18208 -15.0016 491.608 -0.917351 0.179314 -0.355407
-9.07002 -14.7424 491.444 -0.910337 0.169267 -0.37767
-8.96595 -14.4906 491.279 -0.900973 0.170171 -0.399111
-8.81853 -14.1979 491.118 -0.894282 0.215196 -0.392365
-8.69189 -13.9245 490.954 -0.887166 0.208655 -0.411582
-8.51519 -13.6038 490.795 -0.856749 0.21697 -0.467873
-8.36107 -13.3041 490.634 -0.809524 0.208486 -0.54882
-8.18201 -12.9808 490.475 -0.799433 0.130086 -0.586502
-8.03753 -12.6899 490.312 -0.828707 0.148679 -0.539573
-7.81046 -12.3208 490.157 -0.808924 0.300284 -0.505441
-7.49355 -11.8667 490.009 -0.752277 0.401014 -0.522749
-7.04688 -11.2896 489.871 -0.728137 0.392476 -0.561942
-3.33454 -21.8908 506.552 -0.400101 -0.555378 0.729023
-3.55675 -21.9402 506.351 -0.492348 -0.526894 0.692803
-3.78955 -21.9994 506.149 -0.470069 -0.55106 0.68947
-4.04473 -22.079 505.945 -0.466433 -0.544092 0.697427
-4.25252 -22.1158 505.746 -0.517816 -0.494113 0.698369
-4.47403 -22.1651 505.547 -0.538303 -0.48305 0.690574
-4.68814 -22.2079 505.348 -0.578415 -0.48453 0.656252
-4.88666 -22.2366 505.151 -0.5789 -0.483942 0.656258
-5.08621 -22.2664 504.955 -0.601042 -0.453822 0.657871
-5.27768 -22.2889 504.759 -0.620589 -0.485123 0.616056
-5.45108 -22.2951 504.566 -0.603305 -0.506089 0.616357
-5.63379 -22.3099 504.372 -0.634232 -0.459204 0.621998
-5.82208 -22.3298 504.177 -0.656185 -0.463382 0.595566
-5.99477 -22.3357 503.984 -0.659149 -0.485192 0.574553
-6.14531 -22.3226 503.794 -0.653635 -0.490846 0.576048
-6.3214 -22.3302 503.602 -0.660362 -0.492601 0.566804
-6.46948 -22.3137 503.412 -0.684929 -0.470923 0.555971
-6.63609 -22.3146 503.221 -0.719214 -0.41762 0.555271
-6.77197 -22.2879 503.033 -0.739453 -0.401422 0.540435
-6.91585 -22.2675 502.844 -0.753666 -0.3978 0.523204
-7.06941 -22.2565 502.654 -0.748369 -0.416481 0.516225
-7.21761 -22.2404 502.465 -0.732238 -0.426759 0.530758
-7.36539 -22.224 502.277 -0.805134 -0.352236 0.477168
-7.4701 -22.1689 502.093 -0.821718 -0.3511 0.448898
-7.59668 -22.1334 501.907 -0.779669 -0.40371 0.47868
-7.7364 -22.11 501.719 -0.803881 -0.39538 0.444354
-7.84948 -22.0623 501.534 -0.819713 -0.362316 0.443619
-7.97068 -22.0212 501.35 -0.791526 -0.381736 0.477247
-8.09081 -21.9808 501.164 -0.84615 -0.347096 0.404417
-8.18136 -21.9126 500.982 -0.901754 -0.314465 0.296565
-8.27827 -21.8501 500.8 -0.817742 -0.439344 0.371853
-8.3968 -21.8076 500.615 -0.811403 -0.412322 0.414265
-8.51009 -21.7603 500.43 -0.833583 -0.385848 0.395298
-8.62654 -21.716 500.246 -0.877146 -0.351042 0.327695
-8.69082 -21.6237 500.067 -0.920556 -0.285654 0.26642
-8.75688 -21.5329 499.888 -0.898169 -0.293503 0.327335
-8.8528 -21.4698 499.706 -0.895709 -0.266765 0.355726
-8.93911 -21.3978 499.525 -0.884917 -0.260903 0.385813
-9.0516 -21.35 499.341 -0.906209 -0.215192 0.363974
-9.13105 -21.2719 499.161 -0.942853 -0.177831 0.281786
-9.19509 -21.1793 498.983 -0.956396 -0.202206 0.21076
-9.25878 -21.0864 498.804 -0.941588 -0.269799 0.201544
-9.34237 -21.0121 498.624 -0.920457 -0.31329 0.233683
-9.40798 -20.9214 498.445 -0.913114 -0.307251 0.267994
-9.50023 -20.8545 498.263 -0.926549 -0.278696 0.252658
-9.56376 -20.7619 498.085 -0.944973 -0.25575 0.204006
-9.62732 -20.6689 497.907 -0.944831 -0.265029 0.192492
-9.68716 -20.5725 497.729 -0.956588 -0.246079 0.156156
-9.73235 -20.4627 497.552 -0.971807 -0.212871 0.101376
-9.76411 -20.3403 497.377 -0.969134 -0.226939 0.0963242
-9.80539 -20.2264 497.201 -0.959546 -0.246561 0.135938
-9.86508 -20.1303 497.023 -0.966144 -0.224168 0.127726
-9.92785 -20.0366 496.845 -0.975004 -0.205407 0.084708
-9.95438 -19.9093 496.67 -0.987319 -0.150906 0.049283
-9.97483 -19.7763 496.496 -0.991898 -0.124086 0.027219
-10.0018 -19.6493 496.321 -0.982938 -0.183826 -0.0064572
-10.0182 -19.5125 496.148 -0.976059 -0.216275 0.0230928
-10.053 -19.3928 495.972 -0.984673 -0.150753 0.0877048
-10.0724 -19.2582 495.798 -0.993269 -0.0837114 0.080063
-10.0965 -19.1296 495.624 -0.998036 -0.0443443 -0.0442521
-10.0541 -18.9373 495.456 -0.997309 -0.052184 -0.0514947
-10.0809 -18.8099 495.281 -0.996394 -0.0794951 0.0296473
-10.1154 -18.6898 495.105 -0.997849 -0.0534421 -0.0379633
-10.1052 -18.5279 494.934 -0.99499 -0.0643492 -0.0765074
-10.1096 -18.3794 494.761 -0.991297 -0.0642305 -0.114915
-10.0897 -18.2091 494.589 -0.98493 -0.0532635 -0.164546
-10.055 -18.0232 494.422 -0.982532 -0.0380078 -0.18217
-10.0386 -17.8557 494.25 -0.988818 -0.0948644 -0.115068
-10.056 -17.7191 494.076 -0.99297 -0.0987126 -0.0653227
-10.0229 -17.5354 493.906 -0.988132 0.00912178 -0.153333
-9.99432 -17.3559 493.736 -0.974928 0.0535999 -0.215969
-9.93606 -17.1481 493.57 -0.975552 0.0263518 -0.218181
-9.91593 -16.9767 493.398 -0.978691 -0.0336569 -0.202561
-9.89122 -16.8006 493.227 -0.979817 -0.00483925 -0.199839
-9.83428 -16.5937 493.061 -0.976577 0.0354774 -0.212224
-9.80214 -16.4107 492.89 -0.970353 0.046793 -0.237121
-9.72456 -16.185 492.722 -0.962139 0.0867717 -0.258379
-9.67419 -15.9841 492.555 -0.949994 0.115664 -0.290056
-9.58397 -15.7459 492.39 -0.933148 0.118509 -0.339397
-9.48052 -15.4954 492.225 -0.940301 0.0932612 -0.327317
-9.41254 -15.2779 492.058 -0.937255 0.108819 -0.331227
-9.31169 -15.0294 491.893 -0.908461 0.151291 -0.389627
-9.18603 -14.7574 491.731 -0.91565 0.145814 -0.374598
-9.10459 -14.5268 491.564 -0.912551 0.161996 -0.37551
-8.94713 -14.2246 491.404 -0.888857 0.200202 -0.412132
-8.79923 -13.9312 491.243 -0.895275 0.197383 -0.399403
-8.68389 -13.6683 491.079 -0.894076 0.200373 -0.400598
-8.55819 -13.3954 490.915 -0.86315 0.172641 -0.474518
-8.42445 -13.1148 490.752 -0.823538 0.150264 -0.546997
-8.24006 -12.7862 490.593 -0.806033 0.177095 -0.564755
-8.01454 -12.4186 490.438 -0.78186 0.228217 -0.580183
-7.72368 -11.989 490.288 -0.770813 0.345774 -0.535058
-7.35661 -11.4871 490.144 -0.757635 0.392968 -0.52112
-7.07273 -11.0635 489.993 -0.730561 0.360737 -0.579784
-3.40518 -21.7109 506.671 -0.457463 -0.483655 0.746194
-3.64269 -21.7743 506.469 -0.473378 -0.530501 0.703194
-3.88325 -21.8406 506.266 -0.477864 -0.548063 0.686493
-4.06232 -21.8513 506.071 -0.530578 -0.489246 0.692188
-4.29254 -21.9084 505.87 -0.527014 -0.487026 0.696464
-4.51236 -21.9563 505.67 -0.506213 -0.528327 0.68163
-4.73389 -22.0059 505.47 -0.56074 -0.521628 0.64302
-4.89493 -22.0006 505.278 -0.584678 -0.514271 0.627437
-5.09911 -22.0346 505.081 -0.547047 -0.506978 0.666117
-5.33103 -22.094 504.88 -0.621824 -0.451887 0.639635
-5.48234 -22.0801 504.69 -0.655047 -0.458509 0.600569
-5.6666 -22.0963 504.495 -0.6172 -0.478534 0.624555
-5.84793 -22.11 504.301 -0.646952 -0.441783 0.621515
-6.01918 -22.1145 504.109 -0.681367 -0.419585 0.59974
-6.19676 -22.125 503.915 -0.665455 -0.454744 0.591927
-6.36904 -22.1306 503.723 -0.682937 -0.463305 0.564752
-6.51725 -22.1144 503.533 -0.721691 -0.457017 0.519902
-6.64313 -22.0779 503.347 -0.707332 -0.467237 0.530444
-6.81912 -22.0872 503.154 -0.72662 -0.433893 0.532691
-6.9565 -22.0609 502.966 -0.726174 -0.444935 0.524123
-7.1094 -22.0497 502.776 -0.734291 -0.451717 0.506724
-7.22601 -22.0049 502.591 -0.762114 -0.421736 0.491244
-7.35697 -21.9734 502.404 -0.795656 -0.364916 0.483496
-7.48862 -21.9425 502.217 -0.79695 -0.371641 0.476186
-7.63572 -21.9258 502.029 -0.767235 -0.432471 0.473624
-7.75181 -21.8808 501.844 -0.821213 -0.391399 0.41523
-7.84399 -21.8138 501.661 -0.812504 -0.383398 0.439139
-7.99654 -21.8023 501.472 -0.790543 -0.386916 0.474698
-8.11581 -21.7604 501.287 -0.840743 -0.33035 0.428975
-8.2373 -21.7205 501.102 -0.867031 -0.31689 0.384497
-8.33727 -21.6609 500.919 -0.855306 -0.376735 0.355701
-8.42855 -21.5933 500.737 -0.815916 -0.425257 0.391711
-8.5582 -21.561 500.551 -0.833242 -0.39256 0.389364
-8.63772 -21.4827 500.37 -0.903016 -0.282957 0.32326
-8.72628 -21.4127 500.189 -0.933641 -0.243059 0.263127
-8.79795 -21.3272 500.01 -0.907863 -0.324336 0.265688
-8.88613 -21.2569 499.828 -0.890241 -0.34777 0.294154
-8.96585 -21.1789 499.648 -0.884798 -0.351625 0.305765
-9.04732 -21.1022 499.467 -0.891386 -0.316308 0.324624
-9.13517 -21.0317 499.286 -0.914784 -0.252962 0.314929
-9.23551 -20.9727 499.104 -0.932541 -0.234103 0.274887
-9.30303 -20.8834 498.925 -0.939299 -0.232991 0.251857
-9.36695 -20.7908 498.746 -0.938562 -0.240437 0.247572
-9.43232 -20.6992 498.567 -0.9271 -0.261437 0.268583
-9.51003 -20.6199 498.388 -0.931078 -0.240499 0.274325
-9.57385 -20.527 498.209 -0.947188 -0.196059 0.253764
-9.64912 -20.4449 498.029 -0.953938 -0.17876 0.240931
-9.70098 -20.341 497.852 -0.96627 -0.152921 0.207215
-9.76052 -20.2447 497.674 -0.975251 -0.15204 0.16053
-9.80831 -20.1369 497.497 -0.974812 -0.187184 0.121255
-9.86121 -20.0338 497.32 -0.966147 -0.223307 0.129202
-9.90076 -19.9191 497.144 -0.967164 -0.211809 0.140469
-9.93458 -19.7983 496.969 -0.987646 -0.119721 0.101108
-9.94228 -19.6534 496.796 -0.993416 -0.072674 0.0885651
-9.9875 -19.5433 496.619 -0.984874 -0.122436 0.122608
-10.0411 -19.441 496.442 -0.991715 -0.107663 0.0700709
-10.049 -19.2963 496.269 -0.997985 -0.0598672 0.0209983
-10.0383 -19.1341 496.098 -0.995223 -0.0782594 0.0583715
-10.0775 -19.0184 495.922 -0.989277 -0.112035 0.0936965
-10.117 -18.9029 495.746 -0.99746 -0.0584207 -0.0407507
-10.1029 -18.7375 495.575 -0.985305 -0.113398 -0.127728
-10.1155 -18.5969 495.401 -0.983906 -0.175549 -0.03334
-10.1146 -18.4435 495.229 -0.994386 -0.0997584 -0.035289
-10.1246 -18.3004 495.056 -0.992666 -0.0944624 -0.0754402
-10.1258 -18.1484 494.885 -0.988937 -0.091176 -0.117006
-10.1169 -17.9881 494.712 -0.984373 -0.0510524 -0.168534
-10.0992 -17.8188 494.541 -0.98381 -0.0503576 -0.171996
-10.084 -17.6524 494.369 -0.987805 -0.0811446 -0.132876
-10.0588 -17.4757 494.2 -0.993975 -0.0473038 -0.0988758
-10.0624 -17.3262 494.026 -0.986631 0.0145917 -0.162314
-9.99805 -17.113 493.86 -0.983553 0.0631446 -0.169221
-9.98393 -16.9468 493.688 -0.987157 0.0239844 -0.157942
-9.94983 -16.7617 493.519 -0.980625 0.00976077 -0.195649
-9.88563 -16.5488 493.351 -0.979929 0.039212 -0.195454
-9.86595 -16.3769 493.18 -0.976285 0.0302488 -0.214368
-9.80243 -16.1639 493.013 -0.96678 0.0718775 -0.245296
-9.74326 -15.9551 492.846 -0.96121 0.101969 -0.256275
-9.66002 -15.7237 492.679 -0.959091 0.117932 -0.257366
-9.5963 -15.5102 492.512 -0.946029 0.138027 -0.293218
-9.51187 -15.2772 492.346 -0.944687 0.125421 -0.303045
-9.43112 -15.0476 492.18 -0.93639 0.119852 -0.329861
-9.32592 -14.7948 492.015 -0.904183 0.144 -0.402141
-9.2003 -14.5227 491.853 -0.903688 0.135133 -0.40631
-9.08303 -14.2583 491.689 -0.905647 0.168935 -0.388926
-8.9595 -13.9878 491.526 -0.879246 0.182896 -0.439859
-8.82658 -13.7083 491.364 -0.863297 0.13389 -0.486612
-8.68204 -13.4176 491.202 -0.889914 0.111475 -0.442297
-8.60941 -13.1947 491.034 -0.884818 0.147254 -0.442056
-8.43214 -12.8728 490.875 -0.852708 0.210746 -0.47799
-8.25997 -12.5556 490.715 -0.829224 0.246662 -0.501543
-8.05532 -12.2074 490.558 -0.780044 0.340626 -0.524886
-7.62792 -11.6485 490.42 -0.755139 0.371284 -0.54029
-7.3623 -11.2421 490.267 -0.742562 0.327447 -0.584278
-7.00885 -10.7523 490.122 -0.735269 0.340451 -0.586066
-3.39186 -21.4548 506.802 -0.41206 -0.499274 0.762189
-3.67901 -21.5633 506.593 -0.499674 -0.456158 0.736374
-3.87147 -21.586 506.396 -0.573662 -0.439667 0.69109
-4.0993 -21.641 506.195 -0.524135 -0.506424 0.684702
-4.33059 -21.6992 505.993 -0.456296 -0.559966 0.691543
-4.57931 -21.7734 505.79 -0.48795 -0.556586 0.672397
-4.77022 -21.7945 505.594 -0.570314 -0.506266 0.646866
-4.9892 -21.8426 505.394 -0.615531 -0.474721 0.629097
-5.14883 -21.8362 505.203 -0.569345 -0.522169 0.63497
-5.3334 -21.8525 505.008 -0.598462 -0.474746 0.645336
-5.53518 -21.8846 504.811 -0.662321 -0.421277 0.619562
-5.70074 -21.8823 504.619 -0.64344 -0.469508 0.604605
-5.87155 -21.888 504.426 -0.633726 -0.493013 0.596096
-6.0489 -21.8981 504.233 -0.636724 -0.474187 0.608054
-6.2314 -21.9131 504.039 -0.655114 -0.451764 0.605587
-6.39316 -21.9092 503.847 -0.688218 -0.431777 0.58303
-6.56527 -21.9145 503.655 -0.730366 -0.421784 0.537274
-6.71341 -21.898 503.466 -0.725101 -0.471985 0.501456
-6.83809 -21.8611 503.279 -0.700815 -0.480841 0.526926
-7.00591 -21.8631 503.087 -0.730822 -0.407825 0.547337
-7.1474 -21.841 502.899 -0.773409 -0.365054 0.518241
-7.2878 -21.818 502.711 -0.799287 -0.391979 0.455514
-7.39786 -21.7677 502.526 -0.774638 -0.421058 0.471854
-7.54914 -21.7544 502.337 -0.744625 -0.437772 0.503875
-7.6814 -21.7241 502.15 -0.779622 -0.418411 0.465963
-7.80293 -21.6841 501.964 -0.836583 -0.365732 0.407883
-7.91897 -21.6391 501.779 -0.795359 -0.46069 0.393915
-8.02677 -21.5865 501.595 -0.790835 -0.447101 0.417949
-8.13079 -21.5305 501.412 -0.829064 -0.365891 0.422819
-8.24436 -21.4833 501.227 -0.822901 -0.368326 0.432631
-8.377 -21.4538 501.04 -0.850441 -0.337781 0.403305
-8.4848 -21.4014 500.857 -0.847132 -0.361752 0.389234
-8.58422 -21.3413 500.674 -0.883778 -0.316055 0.345029
-8.65274 -21.2528 500.495 -0.909278 -0.263721 0.321971
-8.75726 -21.1976 500.311 -0.899048 -0.295724 0.322893
-8.84562 -21.1271 500.13 -0.908688 -0.303878 0.286261
-8.92652 -21.0502 499.949 -0.891805 -0.343581 0.29434
-9.02643 -20.9909 499.767 -0.900904 -0.348795 0.25829
-9.091 -20.8987 499.588 -0.908155 -0.337648 0.247486
-9.17143 -20.8212 499.408 -0.897932 -0.347914 0.269581
-9.23588 -20.7288 499.229 -0.919488 -0.301377 0.252415
-9.30787 -20.6438 499.049 -0.93223 -0.265654 0.245715
-9.3909 -20.5688 498.869 -0.932622 -0.261887 0.248257
-9.46568 -20.4863 498.689 -0.935254 -0.257199 0.243206
-9.52945 -20.3934 498.51 -0.943844 -0.22423 0.242652
-9.59294 -20.3007 498.332 -0.94991 -0.204693 0.23616
-9.64759 -20.1991 498.154 -0.954741 -0.204161 0.216308
-9.70915 -20.1043 497.976 -0.956068 -0.212849 0.201566
-9.77266 -20.0112 497.798 -0.956876 -0.223858 0.185136
-9.83168 -19.9141 497.62 -0.965812 -0.218391 0.13969
-9.87043 -19.7979 497.443 -0.971744 -0.202211 0.121759
-9.9193 -19.6915 497.267 -0.985522 -0.136849 0.100095
-9.93488 -19.5538 497.093 -0.99334 -0.0956066 0.0643006
-9.97301 -19.4371 496.917 -0.986587 -0.140921 0.0823821
-10.0103 -19.3197 496.741 -0.97685 -0.193756 0.0906777
-10.0313 -19.187 496.567 -0.990865 -0.133286 0.0205322
-10.0345 -19.0377 496.395 -0.995646 -0.0929167 -0.00743464
-10.0816 -18.9293 496.218 -0.989481 -0.141304 0.0309993
-10.1021 -18.796 496.044 -0.986308 -0.126664 0.105611
-10.14 -18.679 495.868 -0.994458 -0.0630401 0.0841373
-10.1689 -18.5536 495.693 -0.995058 -0.0651294 -0.0749468
-10.1302 -18.365 495.524 -0.989804 -0.117596 -0.0803619
-10.1719 -18.2515 495.348 -0.989373 -0.1382 -0.045192
-10.1685 -18.0957 495.176 -0.990335 -0.119199 -0.0709157
-10.1824 -17.956 495.002 -0.992175 -0.0654959 -0.106298
-10.1448 -17.7682 494.833 -0.983801 -0.0549218 -0.170646
-10.1289 -17.6003 494.663 -0.983692 -0.0585613 -0.170062
-10.1001 -17.4211 494.492 -0.984723 -0.0471349 -0.167627
-10.0858 -17.2547 494.321 -0.99213 -0.0319301 -0.121069
-10.0598 -17.0774 494.151 -0.984579 0.0739233 -0.158554
-9.9803 -16.8499 493.985 -0.989456 0.0548529 -0.134041
-10.0055 -16.7204 493.81 -0.992598 0.0154644 -0.120456
-9.93474 -16.5007 493.645 -0.98253 0.064305 -0.174642
-9.93303 -16.3461 493.471 -0.983507 0.0328908 -0.177853
-9.87086 -16.1345 493.304 -0.970375 0.0374094 -0.238688
-9.81984 -15.9334 493.135 -0.961818 0.0863737 -0.259702
-9.73621 -15.7013 492.97 -0.95647 0.105686 -0.272022
-9.67493 -15.4901 492.802 -0.950449 0.0862298 -0.298682
-9.59307 -15.2596 492.636 -0.940113 0.0920869 -0.328189
-9.50138 -15.0196 492.471 -0.948428 0.110404 -0.297144
-9.44384 -14.8116 492.303 -0.944412 0.124873 -0.304124
-9.35019 -14.5696 492.137 -0.915067 0.158713 -0.370759
-9.22968 -14.3021 491.974 -0.896774 0.167968 -0.409369
-9.09236 -14.0186 491.812 -0.895862 0.12993 -0.424911
-9.00721 -13.7841 491.646 -0.891629 0.128721 -0.434084
-8.87679 -13.5068 491.483 -0.862093 0.137297 -0.487795
-8.73708 -13.2206 491.321 -0.858658 0.0892834 -0.504713
-8.59661 -12.9334 491.159 -0.868829 0.161422 -0.468058
-8.42385 -12.6156 491 -0.871691 0.276319 -0.404726
-8.24372 -12.2906 490.84 -0.830813 0.341466 -0.43949
-7.85126 -11.7646 490.7 -0.789989 0.382745 -0.478982
-7.65678 -11.4255 490.541 -0.777079 0.354235 -0.520256
-7.3438 -10.974 490.393 -0.734916 0.326539 -0.594366
-6.9757 -10.47 490.249 -0.728986 0.356256 -0.584517
-3.44595 -21.2597 506.924 -0.382588 -0.581251 0.718174
-3.6818 -21.3217 506.722 -0.46102 -0.525054 0.715387
-3.9266 -21.392 506.518 -0.48378 -0.529807 0.696607
-4.17699 -21.4675 506.314 -0.460775 -0.555778 0.691952
-4.39529 -21.5141 506.114 -0.468506 -0.539781 0.699385
-4.62692 -21.5728 505.912 -0.549826 -0.496159 0.671951
-4.78958 -21.5689 505.72 -0.60531 -0.465754 0.645502
-4.98377 -21.5945 505.523 -0.5889 -0.46967 0.657728
-5.20041 -21.6394 505.324 -0.61518 -0.496321 0.612551
-5.36894 -21.6411 505.132 -0.617576 -0.493704 0.612255
-5.54099 -21.6462 504.938 -0.614611 -0.458114 0.642172
-5.75703 -21.6915 504.74 -0.624288 -0.476174 0.619292
-5.93141 -21.7002 504.546 -0.636338 -0.51997 0.56983
-6.08799 -21.6896 504.356 -0.635072 -0.509205 0.580856
-6.2603 -21.6955 504.163 -0.657941 -0.461361 0.595197
-6.42771 -21.6969 503.971 -0.67977 -0.439949 0.58682
-6.58935 -21.693 503.779 -0.694071 -0.422129 0.583158
-6.75772 -21.6963 503.587 -0.74969 -0.400833 0.52659
-6.89054 -21.6656 503.4 -0.76536 -0.431309 0.477699
-6.99976 -21.6138 503.215 -0.732254 -0.455086 0.506657
-7.15449 -21.6039 503.025 -0.730065 -0.409973 0.546743
-7.31746 -21.6016 502.834 -0.796065 -0.361199 0.485608
-7.42034 -21.5442 502.65 -0.780372 -0.395933 0.484
-7.58292 -21.5414 502.46 -0.758586 -0.399227 0.514941
-7.69638 -21.4945 502.274 -0.808616 -0.360766 0.464745
-7.8245 -21.4602 502.088 -0.777938 -0.405704 0.479808
-7.98438 -21.4555 501.898 -0.828606 -0.387313 0.40423
-8.05092 -21.365 501.719 -0.860992 -0.326884 0.389665
-8.18957 -21.3408 501.531 -0.8391 -0.323985 0.436973
-8.29004 -21.2816 501.348 -0.832805 -0.360703 0.419915
-8.39739 -21.2287 501.164 -0.826563 -0.379786 0.415399
-8.50624 -21.1773 500.98 -0.867276 -0.316324 0.384411
-8.59877 -21.1109 500.798 -0.906159 -0.277636 0.319052
-8.68236 -21.0361 500.617 -0.889075 -0.31496 0.332182
-8.79261 -20.9862 500.433 -0.886771 -0.3082 0.344455
-8.86343 -20.8997 500.254 -0.900899 -0.271931 0.338281
-8.97994 -20.8556 500.069 -0.894132 -0.286506 0.344154
-9.04848 -20.767 499.89 -0.919474 -0.253816 0.300242
-9.13677 -20.697 499.709 -0.923119 -0.250718 0.291532
-9.21743 -20.6195 499.528 -0.92112 -0.291917 0.257531
-9.29652 -20.541 499.348 -0.930373 -0.293357 0.219881
-9.36037 -20.4481 499.169 -0.929345 -0.292617 0.225153
-9.42415 -20.3552 498.99 -0.932628 -0.26634 0.243449
-9.48791 -20.2625 498.812 -0.945363 -0.251156 0.207868
-9.54113 -20.1599 498.634 -0.941931 -0.272992 0.195555
